# .PCD v0.7 - Point Cloud Data file format
VERSION 0.7
FIELDS x y z
SIZE 4 4 4
TYPE F F F
COUNT 1 1 1
WIDTH 1765
HEIGHT 1
VIEWPOINT 0 0 0 1 0 0 0
POINTS 1765
DATA ascii
42.83786 6 16.80875
43.457859 6.0320001 16.807501
44.05386 6.0159998 16.80875
44.665859 6.0120001 16.809999
42.841862 6.6160002 16.809999
43.429859 6.6279998 16.809999
44.029861 6.6199999 16.799999
44.661861 6.6199999 16.80125
42.833858 7.224 16.811251
43.433861 7.224 16.809999
44.041859 7.2319999 16.80125
44.62986 7.2280002 16.811251
42.861858 7.8119998 16.80625
43.44986 7.816 16.811251
44.05386 7.8000002 16.80625
44.653858 7.8000002 16.8025
42.853859 8.4040003 16.799999
43.453861 8.4040003 16.80625
44.029861 8.4200001 16.803749
44.665859 8.4320002 16.811251
42.829861 9.0120001 16.80875
43.433861 9.0120001 16.807501
44.037861 9.0159998 16.811251
44.661861 9.0039997 16.805
42.857861 9.6280003 16.807501
43.437859 9.6120005 16.807501
44.05386 9.6079998 16.811251
44.653858 9.632 16.80125
42.841862 10.2 16.809999
43.453861 10.2 16.807501
44.049858 10.2 16.799999
44.645859 10.212 16.80625
42.829861 10.82 16.811251
43.437859 10.812 16.803749
44.061859 10.808 16.799999
44.645859 10.824 16.807501
42.83786 11.412 16.809999
43.437859 11.404 16.809999
44.049858 11.42 16.811251
44.641861 11.404 16.811251
42.833858 12.036 16.80125
43.44186 12.012 16.807501
44.065861 12.024 16.80125
44.62986 12 16.80875
42.841862 12.632 16.811251
43.453861 12.616 16.809999
44.037861 12.624 16.80125
44.637859 12.6 16.805
42.829861 13.22 16.80125
43.465858 13.2 16.80625
44.029861 13.216 16.805
44.641861 13.228 16.811251
42.86586 13.832 16.80625
43.44186 13.804 16.80875
44.029861 13.824 16.80625
44.633862 13.808 16.80125
42.86586 14.424 16.799999
43.437859 14.432 16.799999
44.065861 14.436 16.809999
44.62986 14.4 16.799999
42.849861 15.004 16.805
43.465858 15.016 16.805
44.033859 15.024 16.805
44.661861 15.036 16.80875
42.84586 24.028 16.80625
43.429859 24.004 16.80125
44.033859 24.007999 16.80125
44.64986 24 16.803749
42.857861 24.636 16.80875
43.457859 24.608 16.80875
44.05386 24.615999 16.8025
44.653858 24.624001 16.80125
42.841862 25.212 16.803749
43.433861 25.219999 16.799999
44.029861 25.236 16.809999
44.64986 25.204 16.80125
42.86586 25.816 16.80625
43.437859 25.836 16.80875
44.05386 25.827999 16.80875
44.64986 25.823999 16.80125
42.83786 26.412001 16.809999
43.453861 26.403999 16.805
44.029861 26.416 16.811251
44.641861 26.427999 16.805
42.849861 27.032 16.80625
43.44986 27.02 16.80875
44.061859 27.016001 16.80125
44.645859 27.028 16.803749
42.841862 27.612 16.799999
43.429859 27.632 16.809999
44.04586 27.608 16.80125
44.637859 27.632 16.803749
42.853859 28.232 16.811251
43.457859 28.212 16.80875
44.037861 28.204 16.80875
44.65786 28.232 16.8025
42.853859 28.827999 16.80875
43.461861 28.812 16.807501
44.033859 28.832001 16.811251
44.641861 28.836 16.811251
42.833858 29.42 16.803749
43.44986 29.427999 16.803749
44.029861 29.42 16.805
44.665859 29.416 16.80875
42.861858 30.024 16.799999
43.44986 30.024 16.80125
44.061859 30.007999 16.799999
44.65786 30.007999 16.803749
42.841862 30.620001 16.803749
43.445862 30.6 16.805
44.049858 30.608 16.811251
44.661861 30.636 16.809999
42.833858 31.236 16.80625
43.44986 31.200001 16.799999
44.049858 31.204 16.809999
44.65786 31.224001 16.807501
42.861858 31.823999 16.80125
43.429859 31.82 16.803749
44.049858 31.832001 16.80125
44.665859 31.816 16.80125
42.841862 32.436001 16.803749
43.44186 32.436001 16.805
44.033859 32.411999 16.803749
44.665859 32.400002 16.807501
42.86586 33.02 16.80875
43.465858 33.02 16.80625
44.05386 33.02 16.805
44.65786 33.023998 16.811251
42.83786 33.604 16.799999
43.44186 33.599998 16.805
44.057861 33.616001 16.807501
44.637859 33.636002 16.80625
42.857861 34.208 16.809999
43.437859 34.203999 16.811251
44.061859 34.208 16.807501
44.65786 34.208 16.803749
42.841862 34.799999 16.811251
43.457859 34.835999 16.80875
44.061859 34.812 16.809999
44.661861 34.835999 16.80125
42.849861 35.424 16.80875
43.433861 35.431999 16.807501
44.061859 35.419998 16.799999
44.665859 35.400002 16.8025
42.861858 36.032001 16.807501
43.453861 36.032001 16.799999
44.029861 36.004002 16.8025
44.633862 36 16.80125
42.861858 36.632 16.80875
43.461861 36.636002 16.807501
44.033859 36.616001 16.805
44.661861 36.627998 16.8025
42.853859 37.220001 16.799999
43.457859 37.216 16.799999
44.033859 37.216 16.799999
44.65786 37.212002 16.809999
42.829861 37.82 16.80125
43.437859 37.824001 16.803749
44.05386 37.824001 16.805
44.641861 37.824001 16.803749
42.833858 38.400002 16.811251
43.44986 38.400002 16.807501
44.065861 38.428001 16.803749
44.665859 38.424 16.809999
42.833858 39.028 16.805
43.445862 39.023998 16.80875
44.037861 39.032001 16.8025
44.653858 39.004002 16.799999
42.86586 39.627998 16.809999
43.44186 39.608002 16.80625
44.05386 39.612 16.80875
44.65786 39.599998 16.80875
42.841862 40.236 16.805
43.457859 40.203999 16.8025
44.057861 40.216 16.80125
44.633862 40.231998 16.799999
42.86586 40.804001 16.809999
43.44186 40.835999 16.811251
44.04586 40.832001 16.809999
44.637859 40.807999 16.799999
42.86586 41.400002 16.80625
43.453861 41.431999 16.80625
44.05386 41.411999 16.80875
44.62986 41.400002 16.809999
42.849861 42.035999 16.8025
43.453861 42.004002 16.80125
44.05386 42.007999 16.805
44.64986 42.02 16.803749
42.853859 42.604 16.803749
43.44986 42.624001 16.80625
44.057861 42.627998 16.807501
44.64986 42.624001 16.807501
42.829861 43.208 16.811251
43.457859 43.216 16.8025
44.057861 43.236 16.80125
44.62986 43.231998 16.805
42.841862 43.816002 16.807501
43.465858 43.804001 16.805
44.04586 43.832001 16.80875
44.65786 43.82 16.803749
42.841862 44.416 16.803749
43.433861 44.436001 16.811251
44.057861 44.408001 16.803749
44.661861 44.436001 16.80875
42.829861 45.035999 16.811251
43.445862 45.004002 16.80875
44.061859 45.015999 16.80125
44.64986 45.02 16.803749
42.833858 45.636002 16.803749
43.461861 45.624001 16.809999
44.037861 45.604 16.8025
44.64986 45.608002 16.8025
42.853859 46.203999 16.805
43.465858 46.208 16.80625
44.061859 46.208 16.807501
44.65786 46.223999 16.80875
42.84586 46.82 16.803749
43.461861 46.807999 16.809999
44.041859 46.812 16.80875
44.653858 46.804001 16.807501
42.853859 47.419998 16.80875
43.461861 47.408001 16.8025
44.037861 47.431999 16.80625
44.661861 47.428001 16.80875
42.853859 48.023998 16.8025
43.437859 48.02 16.809999
44.029861 48.007999 16.80625
44.64986 48 16.811251
42.84586 48.619999 16.8025
43.44186 48.604 16.805
44.065861 48.627998 16.80125
44.665859 48.627998 16.805
42.841862 49.200001 16.8025
43.461861 49.200001 16.8025
44.05386 49.223999 16.799999
44.661861 49.236 16.80625
42.861858 49.804001 16.80875
43.453861 49.832001 16.811251
44.049858 49.807999 16.805
44.661861 49.832001 16.80875
42.84586 0.035999998 17.407499
43.44986 0 17.405001
44.033859 0.012 17.407499
44.645859 0.0080000004 17.407499
42.861858 0.63200003 17.403749
43.461861 0.63200003 17.405001
44.049858 0.63200003 17.408751
44.64986 0.616 17.40625
42.84586 1.2 17.4
43.433861 1.2 17.41
44.061859 1.224 17.411249
44.65786 1.212 17.4
42.833858 1.8200001 17.403749
43.457859 1.804 17.40625
44.041859 1.836 17.40625
44.661861 1.836 17.403749
42.83786 2.4159999 17.405001
43.465858 2.4360001 17.41
44.057861 2.424 17.4
44.65786 2.428 17.4025
42.849861 3.0280001 17.41
43.445862 3.0239999 17.405001
44.05386 3.0280001 17.401251
44.62986 3.0239999 17.4025
42.857861 3.608 17.403749
43.44186 3.5999999 17.4025
44.061859 3.6199999 17.41
44.637859 3.6159999 17.41
42.841862 4.2119999 17.407499
43.44186 4.1999998 17.40625
44.05386 4.2280002 17.405001
44.653858 4.2160001 17.401251
42.83786 4.8000002 17.41
43.44186 4.8000002 17.40625
44.057861 4.8319998 17.411249
44.637859 4.8119998 17.411249
42.84586 5.4120002 17.405001
43.44186 5.4239998 17.401251
44.041859 5.4039998 17.405001
44.665859 5.4159999 17.40625
42.84586 6.0079999 17.405001
43.429859 6.0040002 17.41
44.033859 6.0120001 17.411249
44.62986 6.0279999 17.401251
42.857861 6.6240001 17.401251
43.453861 6.6360002 17.405001
44.057861 6.6199999 17.41
44.637859 6.5999999 17.407499
42.849861 7.2119999 17.408751
43.433861 7.2160001 17.403749
44.061859 7.1999998 17.407499
44.641861 7.204 17.411249
42.833858 7.8080001 17.4025
43.429859 7.816 17.401251
44.04586 7.8119998 17.41
44.64986 7.8039999 17.411249
42.829861 8.4359999 17.405001
43.429859 8.4119997 17.40625
44.061859 8.3999996 17.4
44.65786 8.4040003 17.40625
42.829861 9 17.408751
43.461861 9.0120001 17.4
44.057861 9.0240002 17.40625
44.637859 9.0360003 17.401251
42.841862 9.6120005 17.40625
43.44186 9.632 17.41
44.037861 9.6000004 17.411249
44.665859 9.6079998 17.405001
42.84586 10.2 17.405001
43.445862 10.236 17.41
44.033859 10.208 17.4
44.633862 10.208 17.403749
42.833858 10.8 17.401251
43.453861 10.816 17.4
44.029861 10.836 17.403749
44.64986 10.812 17.4025
42.849861 11.428 17.405001
43.44986 11.424 17.408751
44.065861 11.408 17.411249
44.653858 11.436 17.411249
42.84586 12 17.401251
43.445862 12.012 17.403749
44.065861 12.028 17.40625
44.637859 12.012 17.401251
42.841862 12.62 17.401251
43.453861 12.6 17.407499
44.029861 12.632 17.403749
44.64986 12.612 17.4025
42.84586 13.216 17.405001
43.44186 13.208 17.403749
44.04586 13.232 17.407499
44.65786 13.216 17.411249
42.841862 13.812 17.407499
43.429859 13.824 17.4025
44.037861 13.804 17.408751
44.64986 13.836 17.4
42.833858 14.4 17.4
43.445862 14.428 17.403749
44.061859 14.412 17.411249
44.641861 14.424 17.4025
42.861858 15.012 17.4
43.453861 15 17.408751
44.061859 15.02 17.4
44.653858 15.024 17.41
42.829861 15.6 17.401251
43.429859 15.62 17.401251
44.037861 15.624 17.403749
44.637859 15.608 17.4
44.641861 16.219999 17.411249
42.829861 24.007999 17.411249
43.461861 24.004 17.403749
44.04586 24.024 17.40625
44.661861 24.028 17.405001
42.833858 24.636 17.403749
43.437859 24.604 17.41
44.049858 24.624001 17.403749
44.645859 24.6 17.411249
42.84586 25.200001 17.401251
43.429859 25.216 17.401251
44.033859 25.224001 17.40625
44.62986 25.228001 17.408751
42.841862 25.812 17.40625
43.433861 25.804001 17.403749
44.049858 25.816 17.405001
44.62986 25.823999 17.408751
42.86586 26.403999 17.407499
43.445862 26.427999 17.407499
44.041859 26.403999 17.41
44.653858 26.416 17.405001
42.86586 27.02 17.403749
43.44986 27.028 17.4
44.04586 27.011999 17.403749
44.633862 27.016001 17.407499
42.853859 27.604 17.4
43.433861 27.608 17.407499
44.061859 27.612 17.4
44.645859 27.636 17.411249
42.83786 28.212 17.403749
43.44186 28.204 17.408751
44.065861 28.204 17.405001
44.637859 28.232 17.403749
42.84586 28.808001 17.407499
43.465858 28.812 17.4025
44.049858 28.799999 17.405001
44.65786 28.812 17.41
42.853859 29.403999 17.401251
43.453861 29.431999 17.4025
44.057861 29.4 17.408751
44.62986 29.42 17.411249
42.86586 30.02 17.4
43.44986 30.035999 17.41
44.065861 30.016001 17.4025
44.64986 30.011999 17.408751
42.829861 30.604 17.408751
43.445862 30.632 17.4025
44.04586 30.615999 17.405001
44.65786 30.608 17.405001
42.86586 31.208 17.407499
43.457859 31.208 17.4025
44.05386 31.216 17.411249
44.661861 31.236 17.41
42.853859 31.832001 17.4025
43.429859 31.823999 17.41
44.057861 31.823999 17.411249
44.65786 31.808001 17.411249
42.86586 32.424 17.407499
43.44986 32.411999 17.4
44.065861 32.408001 17.4025
44.661861 32.436001 17.408751
42.829861 33.028 17.401251
43.465858 33.02 17.4
44.057861 33.012001 17.401251
44.637859 33.012001 17.411249
42.83786 33.612 17.408751
43.44186 33.599998 17.411249
44.037861 33.636002 17.408751
44.62986 33.627998 17.4
42.841862 34.231998 17.405001
43.44986 34.223999 17.407499
44.04586 34.223999 17.403749
44.64986 34.228001 17.411249
42.861858 34.827999 17.405001
43.433861 34.804001 17.41
44.029861 34.812 17.401251
44.65786 34.824001 17.403749
42.861858 35.400002 17.405001
43.44986 35.403999 17.401251
44.057861 35.416 17.4
44.633862 35.403999 17.41
42.86586 36.023998 17.40625
43.44186 36.012001 17.405001
44.04586 36.012001 17.401251
44.62986 36.015999 17.405001
42.829861 36.616001 17.408751
43.44186 36.612 17.403749
44.05386 36.604 17.405001
44.633862 36.632 17.408751
42.84586 37.220001 17.403749
43.453861 37.236 17.405001
44.049858 37.231998 17.4025
44.637859 37.212002 17.407499
42.853859 37.835999 17.411249
43.429859 37.799999 17.407499
44.04586 37.799999 17.4025
44.637859 37.816002 17.407499
42.857861 38.400002 17.411249
43.44186 38.411999 17.41
44.029861 38.431999 17.403749
44.641861 38.416 17.405001
42.861858 39.004002 17.403749
43.437859 39.012001 17.41
44.061859 39 17.41
44.62986 39.007999 17.4
42.853859 39.624001 17.4025
43.461861 39.599998 17.407499
44.05386 39.599998 17.411249
44.653858 39.612 17.405001
42.84586 40.216 17.405001
43.465858 40.228001 17.401251
44.04586 40.228001 17.4025
44.665859 40.200001 17.407499
42.857861 40.799999 17.41
43.457859 40.807999 17.4
44.065861 40.832001 17.41
44.637859 40.835999 17.411249
42.829861 41.419998 17.411249
43.465858 41.411999 17.4025
44.05386 41.436001 17.41
44.62986 41.436001 17.41
42.833858 42.02 17.40625
43.445862 42.015999 17.408751
44.037861 42.012001 17.4
44.62986 42.012001 17.4025
42.829861 42.616001 17.401251
43.429859 42.624001 17.4025
44.065861 42.627998 17.411249
44.62986 42.632 17.403749
42.849861 43.216 17.4025
43.44186 43.220001 17.403749
44.041859 43.231998 17.41
44.665859 43.216 17.405001
42.861858 43.824001 17.4
43.461861 43.824001 17.40625
44.033859 43.832001 17.411249
44.645859 43.835999 17.41
42.853859 44.400002 17.40625
43.44986 44.411999 17.40625
44.029861 44.431999 17.4
44.641861 44.411999 17.408751
42.861858 45.028 17.40625
43.457859 45.032001 17.4
44.041859 45.032001 17.41
44.64986 45.028 17.408751
42.829861 45.632 17.40625
43.429859 45.616001 17.407499
44.029861 45.599998 17.408751
44.64986 45.627998 17.4025
42.83786 46.231998 17.4025
43.437859 46.203999 17.408751
44.033859 46.236 17.405001
44.665859 46.231998 17.405001
42.833858 46.816002 17.403749
43.465858 46.835999 17.4025
44.05386 46.799999 17.4025
44.645859 46.807999 17.407499
42.829861 47.408001 17.41
43.465858 47.436001 17.40625
44.033859 47.403999 17.403749
44.64986 47.424 17.405001
42.841862 48.028 17.407499
43.465858 48.032001 17.407499
44.04586 48.035999 17.4
44.665859 48.004002 17.4
42.841862 48.636002 17.4025
43.44986 48.612 17.407499
44.033859 48.624001 17.41
44.665859 48.619999 17.411249
42.84586 49.236 17.4
43.429859 49.216 17.41
44.05386 49.228001 17.41
44.637859 49.228001 17.407499
42.833858 49.812 17.41
43.433861 49.816002 17.411249
44.041859 49.827999 17.4
44.64986 49.807999 17.405001
42.833858 0.02 18
43.433861 0.024 18.008751
44.037861 0.0080000004 18.01
44.64986 0.0080000004 18.00375
42.841862 0.63599998 18.002501
43.433861 0.61199999 18.01125
44.029861 0.616 18.004999
44.62986 0.63200003 18.01
42.833858 1.212 18.00625
43.433861 1.2359999 18.01125
44.049858 1.2079999 18.004999
44.65786 1.224 18
42.849861 1.832 18.00375
43.44186 1.812 18.008751
44.061859 1.836 18.0075
44.633862 1.808 18.002501
42.83786 2.4159999 18.01
43.465858 2.4159999 18.0075
44.057861 2.4200001 18
44.64986 2.428 18.001249
42.84586 3.016 18.00625
43.465858 3.016 18.00375
44.033859 3.0039999 18.004999
44.653858 3.0239999 18.01125
42.84586 3.6199999 18.01
43.437859 3.632 18.001249
44.05386 3.608 18.008751
44.64986 3.6040001 18.002501
42.841862 4.204 18.008751
43.44986 4.2319999 18.0075
44.061859 4.2080002 18.001249
44.645859 4.2119999 18.008751
42.86586 4.8200002 18.01
43.44186 4.8119998 18.004999
44.041859 4.8280001 18.001249
44.633862 4.8080001 18.01125
42.84586 5.4320002 18.004999
43.437859 5.4120002 18.008751
44.04586 5.4359999 18.01
44.641861 5.4159999 18.01
42.829861 6.0120001 18.001249
43.44186 6.0359998 18.004999
44.037861 6.0320001 18.001249
44.62986 6.0079999 18.00625
42.84586 6.6199999 18.004999
43.453861 6.632 18.0075
44.057861 6.6199999 18.008751
44.633862 6.6279998 18.002501
42.86586 7.2119999 18.001249
43.465858 7.2319999 18.0075
44.061859 7.1999998 18.001249
44.633862 7.2199998 18.002501
42.857861 7.8280001 18
43.465858 7.8280001 18.004999
44.05386 7.816 18.001249
44.637859 7.8000002 18.002501
42.833858 8.4359999 18.008751
43.461861 8.4040003 18.0075
44.037861 8.408 18.001249
44.645859 8.4040003 18.01125
42.83786 9.0039997 18
43.44986 9.0080004 18.00625
44.057861 9 18.00625
44.665859 9.0039997 18.002501
42.84586 9.6359997 18.01
43.457859 9.6120005 18
44.065861 9.6160002 18
44.653858 9.6160002 18.001249
42.83786 10.228 18.00625
43.44186 10.212 18.01
44.049858 10.22 18
44.65786 10.2 18.004999
42.84586 10.828 18.004999
43.465858 10.832 18.008751
44.04586 10.808 18.01
44.637859 10.808 18.002501
42.841862 11.404 18.01
43.44186 11.4 18.00625
44.05386 11.416 18.002501
44.633862 11.4 18.008751
42.86586 12.02 18.002501
43.433861 12.008 18.004999
44.05386 12.032 18.001249
44.637859 12.032 18.001249
42.829861 12.608 18.004999
43.461861 12.624 18.01
44.037861 12.636 18.001249
44.633862 12.616 18.001249
42.853859 13.208 18.0075
43.429859 13.212 18.01
44.057861 13.22 18.00625
44.633862 13.224 18.01125
42.849861 13.816 18.008751
43.461861 13.828 18.00625
44.065861 13.836 18.01125
44.64986 13.836 18.01
42.841862 14.408 18.01125
43.44986 14.42 18.004999
44.05386 14.404 18.01
44.645859 14.412 18.002501
42.84586 15 18.01125
43.465858 15.004 18.008751
44.061859 15.024 18.002501
44.661861 15.016 18.01125
42.849861 15.612 18.01
43.457859 15.604 18.01125
44.049858 15.616 18.001249
44.645859 15.636 18.0075
42.829861 16.232 18.01125
43.465858 16.216 18.002501
44.041859 16.236 18.002501
44.645859 16.200001 18.00625
44.04586 16.823999 18.00625
44.645859 16.812 18.0075
44.653858 23.427999 18
42.841862 24.02 18.002501
43.465858 24.004 18.00375
44.033859 24.032 18.00625
44.637859 24.035999 18
42.86586 24.612 18.01
43.457859 24.6 18.008751
44.037861 24.612 18.00375
44.661861 24.628 18.0075
42.829861 25.232 18.008751
43.437859 25.224001 18.0075
44.04586 25.208 18.002501
44.653858 25.212 18.00625
42.829861 25.816 18.00625
43.457859 25.823999 18.004999
44.065861 25.82 18.01125
44.65786 25.816 18.01125
42.857861 26.436001 18.00625
43.437859 26.427999 18.004999
44.065861 26.436001 18.004999
44.661861 26.403999 18.00375
42.857861 27.024 18.00625
43.433861 27.016001 18
44.05386 27.024 18.004999
44.641861 27.011999 18.002501
42.861858 27.608 18.01125
43.465858 27.608 18.004999
44.065861 27.604 18.00625
44.653858 27.612 18.004999
42.829861 28.208 18.00375
43.445862 28.212 18.004999
44.065861 28.200001 18.002501
44.653858 28.204 18.01125
42.853859 28.836 18.00625
43.429859 28.808001 18.001249
44.04586 28.808001 18.00375
44.645859 28.808001 18.008751
42.829861 29.412001 18.01
43.44986 29.436001 18.002501
44.065861 29.403999 18.0075
44.637859 29.427999 18.01125
42.861858 30.028 18.01125
43.433861 30.011999 18.002501
44.029861 30.007999 18.001249
44.65786 30.016001 18.0075
42.861858 30.636 18
43.445862 30.612 18.002501
44.033859 30.612 18.008751
44.62986 30.632 18.01
42.84586 31.228001 18.01125
43.429859 31.204 18.01125
44.029861 31.236 18.01
44.633862 31.208 18.00375
42.853859 31.808001 18.00625
43.465858 31.799999 18
44.049858 31.799999 18.01125
44.653858 31.816 18.004999
42.829861 32.424 18.008751
43.429859 32.431999 18.008751
44.061859 32.416 18.0075
44.62986 32.416 18.008751
42.86586 33.023998 18.0075
43.465858 33 18.001249
44.037861 33.023998 18.00375
44.661861 33.02 18.00625
42.829861 33.612 18.01
43.433861 33.636002 18.002501
44.049858 33.604 18
44.637859 33.604 18.01
42.833858 34.200001 18.002501
43.457859 34.208 18.01125
44.04586 34.212002 18.008751
44.637859 34.208 18.008751
42.841862 34.816002 18.00625
43.465858 34.816002 18.00375
44.05386 34.816002 18.0075
44.645859 34.82 18.008751
42.86586 35.408001 18.01
43.465858 35.424 18
44.029861 35.428001 18.002501
44.637859 35.416 18.004999
42.841862 36 18.008751
43.433861 36.02 18.01125
44.029861 36.032001 18.00625
44.661861 36.035999 18
42.833858 36.632 18.0075
43.465858 36.616001 18.004999
44.05386 36.612 18.0075
44.645859 36.612 18.00375
42.853859 37.220001 18.002501
43.429859 37.228001 18.01125
44.04586 37.212002 18.01125
44.641861 37.223999 18.004999
42.84586 37.832001 18.00625
43.437859 37.824001 18.0075
44.037861 37.827999 18.0075
44.62986 37.824001 18.001249
42.84586 38.416 18.004999
43.44186 38.403999 18.01125
44.061859 38.428001 18.004999
44.62986 38.431999 18.004999
42.86586 39.015999 18.01125
43.433861 39 18.00625
44.057861 39.015999 18.00375
44.645859 39.023998 18
42.841862 39.599998 18.01125
43.465858 39.604 18.01
44.029861 39.627998 18.002501
44.65786 39.599998 18.00375
42.853859 40.231998 18.00375
43.44186 40.203999 18.00375
44.065861 40.208 18.008751
44.661861 40.220001 18.01125
42.841862 40.812 18.004999
43.461861 40.835999 18.002501
44.061859 40.807999 18.00375
44.62986 40.807999 18.0075
42.861858 41.416 18.00375
43.437859 41.403999 18.0075
44.061859 41.400002 18.0075
44.633862 41.419998 18.008751
42.853859 42.015999 18.002501
43.44986 42.007999 18.008751
44.049858 42.028 18.002501
44.633862 42.02 18.002501
42.841862 42.624001 18.004999
43.461861 42.632 18.01
44.04586 42.632 18.00625
44.62986 42.599998 18.0075
42.861858 43.200001 18.01
43.445862 43.212002 18.00375
44.04586 43.236 18.008751
44.653858 43.220001 18.001249
42.849861 43.807999 18
43.461861 43.812 18.01
44.029861 43.824001 18.0075
44.653858 43.82 18.004999
42.857861 44.403999 18.004999
43.437859 44.411999 18.0075
44.029861 44.403999 18.008751
44.665859 44.431999 18
42.83786 45.007999 18.002501
43.437859 45 18.01125
44.049858 45.02 18.001249
44.653858 45.02 18.0075
42.84586 45.619999 18.002501
43.437859 45.616001 18.01125
44.05386 45.612 18.00375
44.62986 45.627998 18.0075
42.853859 46.228001 18.01
43.44986 46.223999 18.0075
44.061859 46.203999 18
44.62986 46.220001 18
42.833858 46.799999 18.008751
43.437859 46.832001 18.00375
44.061859 46.816002 18
44.637859 46.824001 18.0075
42.84586 47.416 18.01125
43.457859 47.416 18.0075
44.041859 47.411999 18.0075
44.641861 47.400002 18.002501
42.86586 48.032001 18.00625
43.433861 48.032001 18
44.033859 48.035999 18.00375
44.633862 48.012001 18.001249
42.84586 48.612 18.0075
43.453861 48.632 18.002501
44.041859 48.608002 18.008751
44.645859 48.636002 18.00375
42.841862 49.216 18.01
43.465858 49.231998 18.01125
44.041859 49.236 18.01125
44.665859 49.203999 18.01
42.86586 49.816002 18.01125
43.445862 49.82 18.00625
44.05386 49.804001 18.01
44.637859 49.799999 18.0075
42.853859 0.02 18.6
43.44986 0.035999998 18.61125
44.033859 0.016000001 18.605
44.665859 0.012 18.605
42.829861 0.63599998 18.60375
43.429859 0.63200003 18.6075
44.029861 0.63599998 18.60375
44.633862 0.616 18.610001
42.853859 1.2 18.602501
43.457859 1.216 18.605
44.049858 1.2 18.61125
44.653858 1.232 18.6
42.857861 1.836 18.606251
43.44186 1.8 18.6
44.057861 1.812 18.61125
44.641861 1.8200001 18.61125
42.833858 2.428 18.61125
43.445862 2.4319999 18.60375
44.049858 2.428 18.606251
44.665859 2.424 18.60125
42.841862 3.0120001 18.60375
43.437859 3.036 18.60125
44.04586 3.036 18.6
44.633862 3.0079999 18.60375
42.84586 3.608 18.6075
43.44186 3.628 18.60125
44.049858 3.632 18.6
44.645859 3.612 18.610001
42.86586 4.1999998 18.608749
43.453861 4.2360001 18.606251
44.057861 4.2080002 18.61125
44.62986 4.224 18.6
42.83786 4.8080001 18.61125
43.445862 4.816 18.605
44.065861 4.8319998 18.610001
44.64986 4.8119998 18.606251
42.861858 5.4320002 18.606251
43.461861 5.4159999 18.6
44.065861 5.4200001 18.6
44.661861 5.4039998 18.61125
42.84586 6.0320001 18.60375
43.44186 6.0040002 18.61125
44.041859 6.02 18.602501
44.64986 6.0359998 18.610001
42.86586 6.6040001 18.610001
43.457859 6.6240001 18.60125
44.04586 6.6279998 18.602501
44.665859 6.6279998 18.6075
42.83786 7.2319999 18.602501
43.437859 7.2360001 18.606251
44.04586 7.2119999 18.6075
44.65786 7.2319999 18.608749
42.86586 7.8039999 18.602501
43.44186 7.8319998 18.60375
44.033859 7.8280001 18.605
44.633862 7.8239999 18.60375
42.83786 8.408 18.6
43.453861 8.408 18.61125
44.041859 8.4239998 18.6
44.65786 8.4320002 18.61125
42.84586 9.0159998 18.605
43.429859 9.0080004 18.602501
44.057861 9.0120001 18.60375
44.665859 9.0240002 18.605
42.841862 9.6359997 18.60125
43.465858 9.6000004 18.6
44.037861 9.6160002 18.602501
44.645859 9.6040001 18.6075
42.853859 10.224 18.602501
43.453861 10.22 18.60375
44.057861 10.236 18.608749
44.633862 10.2 18.60125
42.841862 10.828 18.605
43.461861 10.836 18.6
44.037861 10.816 18.61125
44.645859 10.812 18.60125
42.853859 11.424 18.6075
43.461861 11.4 18.608749
44.049858 11.424 18.60375
44.665859 11.416 18.610001
42.83786 12.004 18.608749
43.437859 12.008 18.61125
44.041859 12.02 18.608749
44.661861 12.016 18.6075
42.861858 12.624 18.6
43.429859 12.608 18.60375
44.041859 12.632 18.60125
44.665859 12.636 18.602501
42.861858 13.224 18.6
43.433861 13.22 18.606251
44.033859 13.2 18.610001
44.633862 13.208 18.60125
42.829861 13.82 18.610001
43.465858 13.812 18.602501
44.049858 13.816 18.60125
44.65786 13.824 18.606251
42.841862 14.436 18.6075
43.445862 14.436 18.606251
44.061859 14.428 18.60125
44.665859 14.404 18.6075
42.853859 15.016 18.610001
43.445862 15.02 18.6
44.057861 15.032 18.6075
44.653858 15.028 18.61125
42.829861 15.62 18.606251
43.433861 15.608 18.60125
44.057861 15.62 18.60375
44.641861 15.608 18.602501
42.829861 16.200001 18.60125
43.433861 16.204 18.605
44.065861 16.236 18.61125
44.661861 16.224001 18.6075
42.861858 16.812 18.6075
43.453861 16.804001 18.605
44.061859 16.808001 18.60125
44.641861 16.812 18.60375
42.857861 17.408001 18.60125
43.429859 17.427999 18.606251
44.037861 17.427999 18.606251
44.64986 17.431999 18.61125
44.065861 18.032 18.602501
44.661861 18.02 18.60375
42.86586 23.416 18.610001
43.457859 23.42 18.6075
44.061859 23.427999 18.6075
44.645859 23.408001 18.606251
42.857861 24.016001 18.6
43.445862 24.007999 18.6075
44.033859 24.011999 18.602501
44.64986 24.024 18.608749
42.829861 24.628 18.61125
43.44986 24.6 18.610001
44.033859 24.636 18.602501
44.637859 24.628 18.6
42.861858 25.228001 18.61125
43.453861 25.216 18.60375
44.033859 25.212 18.608749
44.641861 25.232 18.602501
42.86586 25.804001 18.606251
43.433861 25.823999 18.605
44.061859 25.832001 18.60125
44.665859 25.82 18.60125
42.857861 26.427999 18.60125
43.437859 26.436001 18.6
44.04586 26.436001 18.608749
44.641861 26.42 18.60125
42.857861 27.032 18.606251
43.453861 27.004 18.606251
44.029861 27.007999 18.610001
44.653858 27.02 18.6075
42.829861 27.620001 18.605
43.44186 27.628 18.602501
44.04586 27.615999 18.61125
44.65786 27.632 18.6
42.857861 28.208 18.61125
43.457859 28.232 18.6075
44.061859 28.219999 18.605
44.64986 28.212 18.608749
42.83786 28.816 18.60125
43.437859 28.808001 18.610001
44.061859 28.816 18.606251
44.64986 28.827999 18.602501
42.857861 29.403999 18.61125
43.453861 29.403999 18.608749
44.061859 29.431999 18.602501
44.665859 29.42 18.6
42.849861 30.024 18.608749
43.433861 30.011999 18.6
44.061859 30.032 18.605
44.633862 30 18.6075
42.86586 30.636 18.6
43.445862 30.615999 18.61125
44.065861 30.604 18.60375
44.661861 30.636 18.605
42.849861 31.236 18.602501
43.457859 31.232 18.6
44.065861 31.212 18.610001
44.653858 31.216 18.60375
42.857861 31.816 18.60125
43.44186 31.82 18.602501
44.029861 31.823999 18.60375
44.637859 31.808001 18.61125
42.84586 32.403999 18.6
43.457859 32.436001 18.60125
44.033859 32.428001 18.6
44.64986 32.424 18.610001
42.857861 33.023998 18.60375
43.44986 33.015999 18.608749
44.033859 33.004002 18.60125
44.637859 33.02 18.610001
42.853859 33.627998 18.605
43.433861 33.604 18.6075
44.029861 33.619999 18.610001
44.637859 33.608002 18.61125
42.841862 34.220001 18.610001
43.44986 34.203999 18.606251
44.041859 34.200001 18.60375
44.653858 34.223999 18.608749
42.849861 34.835999 18.61125
43.453861 34.804001 18.6075
44.05386 34.799999 18.60375
44.62986 34.804001 18.6075
42.86586 35.408001 18.602501
43.457859 35.424 18.6075
44.061859 35.400002 18.602501
44.65786 35.428001 18.606251
42.84586 36.004002 18.606251
43.457859 36.035999 18.60375
44.05386 36.028 18.602501
44.64986 36.02 18.6075
42.841862 36.608002 18.6075
43.461861 36.608002 18.61125
44.049858 36.604 18.60375
44.665859 36.599998 18.6
42.849861 37.203999 18.6
43.465858 37.200001 18.608749
44.05386 37.216 18.6
44.645859 37.203999 18.602501
42.857861 37.827999 18.60125
43.437859 37.82 18.6075
44.029861 37.799999 18.610001
44.653858 37.835999 18.60375
42.857861 38.424 18.6075
43.433861 38.419998 18.61125
44.033859 38.408001 18.6
44.641861 38.408001 18.6
42.83786 39 18.6075
43.44986 39.015999 18.608749
44.057861 39.015999 18.6075
44.62986 39.023998 18.60375
42.853859 39.632 18.605
43.457859 39.616001 18.606251
44.029861 39.612 18.60125
44.661861 39.616001 18.6075
42.857861 40.228001 18.610001
43.465858 40.200001 18.602501
44.065861 40.212002 18.60375
44.64986 40.231998 18.61125
42.84586 40.827999 18.60375
43.44186 40.827999 18.60125
44.061859 40.82 18.61125
44.645859 40.807999 18.606251
42.86586 41.416 18.61125
43.429859 41.411999 18.606251
44.061859 41.400002 18.60375
44.665859 41.400002 18.60375
42.833858 42.004002 18.610001
43.453861 42.035999 18.610001
44.05386 42.012001 18.608749
44.633862 42.032001 18.6075
42.841862 42.627998 18.602501
43.445862 42.604 18.6075
44.029861 42.604 18.60125
44.633862 42.612 18.605
42.853859 43.208 18.605
43.465858 43.212002 18.605
44.049858 43.223999 18.610001
44.641861 43.212002 18.608749
42.84586 43.804001 18.6
43.433861 43.816002 18.60125
44.061859 43.827999 18.610001
44.637859 43.807999 18.60125
42.861858 44.416 18.602501
43.465858 44.419998 18.610001
44.041859 44.411999 18.602501
44.62986 44.411999 18.606251
42.853859 45 18.60125
43.445862 45.012001 18.6075
44.033859 45.035999 18.61125
44.645859 45.004002 18.605
42.849861 45.604 18.60375
43.44986 45.612 18.606251
44.05386 45.612 18.60125
44.633862 45.619999 18.610001
42.86586 46.200001 18.602501
43.44186 46.200001 18.608749
44.061859 46.228001 18.608749
44.633862 46.212002 18.602501
42.861858 46.827999 18.602501
43.457859 46.804001 18.606251
44.033859 46.832001 18.6075
44.64986 46.82 18.60125
42.83786 47.403999 18.6075
43.453861 47.416 18.60125
44.04586 47.411999 18.602501
44.661861 47.424 18.605
42.849861 48.023998 18.60375
43.445862 48.032001 18.608749
44.065861 48.032001 18.605
44.633862 48.02 18.608749
42.861858 48.636002 18.608749
43.445862 48.624001 18.602501
44.057861 48.599998 18.606251
44.641861 48.632 18.6
42.857861 49.220001 18.606251
43.465858 49.212002 18.605
44.041859 49.203999 18.6
44.65786 49.228001 18.6
42.853859 49.824001 18.610001
43.437859 49.835999 18.6075
44.033859 49.827999 18.608749
44.661861 49.812 18.606251
42.83786 0.0080000004 19.20875
43.465858 0.032000002 19.2075
44.033859 0.02 19.20125
44.65786 0.024 19.2075
42.833858 0.60399997 19.21125
43.44186 0.63200003 19.21125
44.04586 0.62400001 19.206249
44.645859 0.63200003 19.20875
42.829861 1.204 19.2075
43.465858 1.2359999 19.202499
44.04586 1.212 19.205
44.637859 1.22 19.202499
42.829861 1.824 19.21125
43.44186 1.8200001 19.206249
44.065861 1.832 19.20875
44.633862 1.808 19.20875
42.829861 2.4319999 19.205
43.457859 2.408 19.205
44.05386 2.4200001 19.2075
44.641861 2.4159999 19.20875
42.849861 3.036 19.203751
43.433861 3.0120001 19.209999
44.04586 3.0120001 19.2075
44.641861 3.0239999 19.202499
42.833858 3.628 19.200001
43.461861 3.632 19.205
44.049858 3.5999999 19.205
44.633862 3.5999999 19.21125
42.853859 4.224 19.205
43.445862 4.204 19.209999
44.033859 4.2319999 19.21125
44.653858 4.1999998 19.205
42.84586 4.8239999 19.20875
43.44186 4.8039999 19.203751
44.049858 4.8080001 19.203751
44.65786 4.8000002 19.20125
42.84586 5.4320002 19.205
43.461861 5.4359999 19.2075
44.057861 5.428 19.202499
44.641861 5.4039998 19.2075
42.84586 6.0120001 19.205
43.44186 6.0359998 19.2075
44.061859 6.0240002 19.202499
44.65786 6.0359998 19.205
42.841862 6.6240001 19.2075
43.453861 6.6199999 19.21125
44.065861 6.6040001 19.20875
44.641861 6.5999999 19.209999
42.86586 7.2360001 19.2075
43.445862 7.2119999 19.20875
44.029861 7.2280002 19.202499
44.653858 7.2080002 19.205
42.841862 7.8080001 19.202499
43.457859 7.8000002 19.203751
44.033859 7.8119998 19.20125
44.62986 7.8039999 19.2075
42.833858 8.3999996 19.209999
43.429859 8.4239998 19.200001
44.061859 8.4280005 19.21125
44.645859 8.4040003 19.205
42.84586 9.0120001 19.20125
43.453861 9.0080004 19.205
44.037861 9.0200005 19.2075
44.645859 9.0159998 19.209999
42.857861 9.6239996 19.203751
43.429859 9.632 19.205
44.057861 9.6359997 19.20875
44.65786 9.6040001 19.203751
42.86586 10.236 19.202499
43.461861 10.224 19.205
44.041859 10.2 19.21125
44.653858 10.232 19.20125
42.829861 10.804 19.209999
43.465858 10.828 19.203751
44.065861 10.828 19.20125
44.64986 10.828 19.20125
42.833858 11.424 19.202499
43.461861 11.412 19.203751
44.041859 11.408 19.205
44.653858 11.412 19.200001
42.83786 12.032 19.202499
43.433861 12.016 19.20125
44.049858 12.028 19.205
44.64986 12.032 19.20125
42.829861 12.628 19.200001
43.44186 12.608 19.209999
44.04586 12.616 19.205
44.653858 12.616 19.200001
42.86586 13.232 19.205
43.445862 13.224 19.20875
44.05386 13.232 19.20875
44.665859 13.204 19.202499
42.829861 13.824 19.21125
43.453861 13.816 19.20875
44.065861 13.816 19.2075
44.62986 13.832 19.20125
42.829861 14.416 19.20875
43.445862 14.404 19.20125
44.05386 14.408 19.20125
44.633862 14.432 19.20875
42.829861 15.02 19.206249
43.461861 15.016 19.20875
44.037861 15.024 19.206249
44.633862 15.008 19.20125
42.829861 15.612 19.2075
43.461861 15.612 19.2075
44.065861 15.612 19.200001
44.661861 15.6 19.203751
42.829861 16.224001 19.2075
43.44186 16.236 19.205
44.033859 16.208 19.21125
44.661861 16.200001 19.206249
42.857861 16.808001 19.20125
43.44986 16.82 19.206249
44.05386 16.827999 19.21125
44.637859 16.82 19.205
42.829861 17.427999 19.200001
43.44186 17.427999 19.200001
44.05386 17.427999 19.209999
44.637859 17.412001 19.200001
42.857861 18.016001 19.202499
43.461861 18.016001 19.205
44.04586 18.007999 19.2075
44.65786 18.028 19.203751
42.841862 18.612 19.200001
43.445862 18.632 19.20875
44.061859 18.632 19.2075
44.62986 18.604 19.205
44.64986 19.200001 19.20875
43.457859 22.832001 19.206249
44.029861 22.836 19.205
44.665859 22.82 19.206249
42.833858 23.408001 19.200001
43.453861 23.416 19.205
44.057861 23.403999 19.203751
44.633862 23.427999 19.203751
42.849861 24.007999 19.20125
43.429859 24 19.21125
44.041859 24.035999 19.20875
44.64986 24.024 19.209999
42.833858 24.624001 19.20875
43.457859 24.632 19.202499
44.041859 24.636 19.2075
44.64986 24.632 19.200001
42.86586 25.219999 19.203751
43.437859 25.232 19.20125
44.057861 25.219999 19.206249
44.62986 25.224001 19.206249
42.829861 25.804001 19.205
43.465858 25.823999 19.203751
44.057861 25.836 19.20125
44.653858 25.827999 19.21125
42.829861 26.408001 19.20125
43.457859 26.427999 19.21125
44.065861 26.424 19.2075
44.64986 26.403999 19.205
42.853859 27 19.200001
43.44186 27.004 19.209999
44.061859 27.004 19.21125
44.645859 27.007999 19.20875
42.86586 27.608 19.20875
43.44186 27.632 19.2075
44.04586 27.604 19.209999
44.64986 27.6 19.20875
42.853859 28.204 19.203751
43.437859 28.224001 19.2075
44.057861 28.216 19.20875
44.665859 28.228001 19.200001
42.857861 28.827999 19.20125
43.453861 28.816 19.206249
44.041859 28.82 19.20875
44.637859 28.832001 19.209999
42.861858 29.42 19.21125
43.461861 29.4 19.20125
44.049858 29.427999 19.202499
44.633862 29.403999 19.21125
42.857861 30.032 19.203751
43.453861 30.035999 19.203751
44.05386 30.024 19.200001
44.665859 30.007999 19.2075
42.849861 30.632 19.202499
43.445862 30.608 19.202499
44.037861 30.604 19.20875
44.641861 30.604 19.209999
42.84586 31.228001 19.20875
43.465858 31.232 19.209999
44.061859 31.228001 19.21125
44.641861 31.224001 19.209999
42.853859 31.808001 19.206249
43.465858 31.816 19.21125
44.049858 31.804001 19.21125
44.65786 31.82 19.202499
42.829861 32.400002 19.206249
43.457859 32.411999 19.2075
44.057861 32.400002 19.206249
44.645859 32.436001 19.203751
42.849861 33.028 19.203751
43.453861 33.007999 19.21125
44.04586 33.035999 19.203751
44.633862 33.032001 19.21125
42.841862 33.612 19.200001
43.437859 33.612 19.209999
44.05386 33.619999 19.209999
44.633862 33.608002 19.203751
42.861858 34.200001 19.203751
43.44186 34.223999 19.202499
44.065861 34.212002 19.20125
44.645859 34.236 19.205
42.849861 34.816002 19.206249
43.461861 34.827999 19.203751
44.061859 34.799999 19.209999
44.62986 34.812 19.203751
42.861858 35.436001 19.209999
43.453861 35.411999 19.20125
44.037861 35.411999 19.203751
44.64986 35.424 19.20125
42.861858 36.028 19.206249
43.433861 36.012001 19.205
44.049858 36.032001 19.200001
44.62986 36.028 19.200001
42.849861 36.627998 19.200001
43.445862 36.636002 19.206249
44.065861 36.632 19.20875
44.661861 36.624001 19.200001
42.86586 37.231998 19.203751
43.445862 37.223999 19.20125
44.057861 37.216 19.20125
44.637859 37.220001 19.205
42.86586 37.812 19.203751
43.433861 37.82 19.202499
44.033859 37.804001 19.20125
44.645859 37.827999 19.200001
42.86586 38.424 19.209999
43.461861 38.416 19.20875
44.061859 38.419998 19.20875
44.641861 38.403999 19.203751
42.849861 39.035999 19.21125
43.453861 39.004002 19.20875
44.029861 39.007999 19.202499
44.64986 39.023998 19.20875
42.857861 39.627998 19.209999
43.461861 39.612 19.20875
44.065861 39.619999 19.205
44.665859 39.612 19.200001
42.861858 40.208 19.2075
43.461861 40.228001 19.20875
44.033859 40.208 19.209999
44.641861 40.200001 19.200001
42.829861 40.812 19.205
43.437859 40.832001 19.200001
44.065861 40.832001 19.200001
44.62986 40.824001 19.203751
42.857861 41.428001 19.200001
43.44186 41.436001 19.205
44.04586 41.428001 19.209999
44.637859 41.428001 19.206249
42.833858 42.035999 19.200001
43.429859 42.007999 19.202499
44.037861 42.015999 19.206249
44.661861 42.032001 19.2075
42.86586 42.636002 19.2075
43.433861 42.604 19.205
44.05386 42.636002 19.202499
44.65786 42.616001 19.203751
42.833858 43.231998 19.202499
43.465858 43.208 19.200001
44.05386 43.216 19.20125
44.653858 43.223999 19.206249
42.86586 43.832001 19.21125
43.453861 43.832001 19.21125
44.04586 43.827999 19.209999
44.62986 43.799999 19.200001
42.849861 44.428001 19.20125
43.465858 44.416 19.206249
44.04586 44.428001 19.2075
44.653858 44.431999 19.200001
42.853859 45.023998 19.205
43.465858 45.012001 19.202499
44.04586 45.015999 19.202499
44.64986 45.007999 19.20125
42.84586 45.627998 19.200001
43.44986 45.627998 19.20125
44.057861 45.616001 19.209999
44.661861 45.619999 19.205
42.849861 46.236 19.203751
43.433861 46.223999 19.203751
44.037861 46.216 19.21125
44.661861 46.223999 19.202499
42.841862 46.799999 19.209999
43.44986 46.824001 19.20125
44.05386 46.807999 19.209999
44.65786 46.827999 19.20875
42.861858 47.416 19.205
43.461861 47.416 19.20125
44.04586 47.408001 19.20125
44.65786 47.419998 19.21125
42.83786 48.028 19.206249
43.433861 48.032001 19.20125
44.04586 48.012001 19.202499
44.645859 48.032001 19.200001
42.849861 48.627998 19.205
43.44986 48.616001 19.202499
44.049858 48.616001 19.209999
44.633862 48.616001 19.206249
42.83786 49.231998 19.20875
43.44186 49.228001 19.202499
44.04586 49.236 19.202499
44.62986 49.200001 19.202499
42.833858 49.824001 19.206249
43.44986 49.804001 19.203751
44.057861 49.832001 19.200001
44.637859 49.824001 19.2075
42.853859 0.0040000002 19.8025
43.445862 0.0080000004 19.807501
44.033859 0.016000001 19.807501
44.661861 0 19.80625
42.841862 0.616 19.805
43.44986 0.616 19.80875
44.065861 0.63200003 19.80625
44.645859 0.62 19.809999
42.86586 1.212 19.811251
43.437859 1.22 19.80625
44.061859 1.204 19.809999
44.641861 1.228 19.799999
42.86586 1.804 19.807501
43.461861 1.804 19.807501
44.041859 1.816 19.80125
44.62986 1.804 19.80875
42.86586 2.4000001 19.80625
43.445862 2.424 19.80125
44.049858 2.424 19.807501
44.645859 2.4000001 19.80125
42.833858 3 19.805
43.465858 3.0120001 19.803749
44.033859 3.02 19.805
44.65786 3.0120001 19.807501
42.84586 3.6240001 19.8025
43.457859 3.632 19.805
44.05386 3.628 19.807501
44.637859 3.6159999 19.803749
42.849861 4.204 19.80125
43.433861 4.2280002 19.80125
44.04586 4.2319999 19.80125
44.661861 4.2360001 19.80625
42.833858 4.8000002 19.799999
43.461861 4.8280001 19.80625
44.04586 4.8119998 19.803749
44.653858 4.8080001 19.8025
42.83786 5.4359999 19.80125
43.465858 5.4120002 19.80875
44.04586 5.4000001 19.809999
44.64986 5.4039998 19.80875
42.853859 6.0279999 19.80625
43.465858 6.02 19.805
44.05386 6.0320001 19.805
44.653858 6.0320001 19.805
42.841862 6.6079998 19.811251
43.457859 6.6040001 19.8025
44.033859 6.612 19.80125
44.637859 6.6160002 19.807501
42.83786 7.2319999 19.807501
43.437859 7.2119999 19.811251
44.029861 7.204 19.807501
44.65786 7.2119999 19.803749
42.83786 7.836 19.803749
43.461861 7.8319998 19.8025
44.04586 7.8039999 19.807501
44.645859 7.8319998 19.80875
42.861858 8.4359999 19.803749
43.433861 8.4160004 19.811251
44.057861 8.4239998 19.809999
44.641861 8.4320002 19.803749
42.84586 9.0319996 19.80875
43.429859 9.0240002 19.799999
44.049858 9 19.811251
44.661861 9 19.80875
42.83786 9.6280003 19.811251
43.465858 9.6040001 19.811251
44.061859 9.6359997 19.811251
44.633862 9.6000004 19.803749
42.833858 10.236 19.80125
43.433861 10.216 19.811251
44.04586 10.232 19.799999
44.641861 10.2 19.809999
42.841862 10.82 19.799999
43.44986 10.82 19.799999
44.037861 10.832 19.811251
44.641861 10.836 19.799999
42.841862 11.428 19.80125
43.445862 11.404 19.803749
44.065861 11.416 19.8025
44.62986 11.42 19.809999
42.833858 12.004 19.807501
43.433861 12.02 19.809999
44.033859 12.032 19.80625
44.633862 12.012 19.80125
42.84586 12.632 19.80125
43.44186 12.604 19.8025
44.04586 12.624 19.811251
44.65786 12.6 19.799999
42.841862 13.236 19.805
43.457859 13.204 19.80125
44.05386 13.212 19.803749
44.637859 13.224 19.799999
42.841862 13.832 19.809999
43.461861 13.836 19.805
44.033859 13.812 19.805
44.637859 13.828 19.80875
42.853859 14.412 19.805
43.453861 14.408 19.807501
44.061859 14.42 19.809999
44.64986 14.412 19.811251
42.853859 15.036 19.805
43.433861 15.012 19.80125
44.033859 15.024 19.80125
44.637859 15.028 19.8025
42.853859 15.632 19.809999
43.437859 15.612 19.80875
44.065861 15.636 19.8025
44.64986 15.628 19.805
42.83786 16.224001 19.8025
43.429859 16.204 19.80625
44.033859 16.236 19.807501
44.653858 16.204 19.811251
42.86586 16.816 19.809999
43.437859 16.823999 19.80875
44.04586 16.816 19.80625
44.645859 16.823999 19.809999
42.833858 17.431999 19.799999
43.44186 17.412001 19.80875
44.029861 17.42 19.80625
44.637859 17.427999 19.807501
42.86586 18.035999 19.809999
43.44986 18.028 19.80125
44.05386 18.032 19.80625
44.653858 18 19.805
42.841862 18.624001 19.809999
43.465858 18.604 19.80875
44.065861 18.608 19.80625
44.633862 18.632 19.809999
42.86586 19.200001 19.807501
43.453861 19.208 19.803749
44.049858 19.212 19.805
44.641861 19.232 19.803749
42.84586 19.823999 19.80125
43.433861 19.812 19.80125
44.049858 19.823999 19.809999
44.645859 19.827999 19.80125
44.061859 20.403999 19.80625
44.645859 20.4 19.80875
44.029861 21.016001 19.80875
44.641861 21.02 19.8025
43.457859 21.636 19.809999
44.061859 21.608 19.811251
44.641861 21.6 19.80125
42.86586 22.232 19.80625
43.445862 22.219999 19.80625
44.037861 22.219999 19.799999
44.653858 22.204 19.799999
42.857861 22.812 19.805
43.453861 22.827999 19.80125
44.029861 22.823999 19.805
44.62986 22.812 19.803749
42.829861 23.403999 19.80625
43.465858 23.416 19.80875
44.041859 23.412001 19.809999
44.62986 23.431999 19.803749
42.849861 24.007999 19.799999
43.457859 24.032 19.803749
44.057861 24.028 19.811251
44.641861 24.02 19.809999
42.84586 24.620001 19.805
43.433861 24.624001 19.80875
44.04586 24.624001 19.809999
44.637859 24.632 19.805
42.833858 25.212 19.799999
43.433861 25.212 19.799999
44.05386 25.232 19.805
44.653858 25.228001 19.805
42.83786 25.823999 19.8025
43.433861 25.836 19.811251
44.033859 25.82 19.80625
44.64986 25.823999 19.80125
42.83786 26.412001 19.811251
43.437859 26.427999 19.811251
44.061859 26.4 19.8025
44.62986 26.408001 19.80625
42.829861 27.032 19.80625
43.453861 27.028 19.8025
44.033859 27.004 19.809999
44.64986 27.016001 19.811251
42.84586 27.620001 19.80625
43.465858 27.6 19.80125
44.037861 27.615999 19.807501
44.645859 27.632 19.803749
42.841862 28.224001 19.807501
43.461861 28.228001 19.809999
44.041859 28.236 19.809999
44.665859 28.224001 19.80875
42.841862 28.836 19.809999
43.445862 28.816 19.8025
44.041859 28.832001 19.811251
44.661861 28.799999 19.811251
42.83786 29.416 19.80625
43.461861 29.4 19.803749
44.04586 29.424 19.8025
44.62986 29.416 19.80125
42.829861 30.028 19.8025
43.461861 30.032 19.809999
44.061859 30.016001 19.80875
44.653858 30.032 19.803749
42.833858 30.604 19.805
43.429859 30.6 19.805
44.037861 30.615999 19.799999
44.65786 30.615999 19.80125
42.841862 31.232 19.80875
43.457859 31.200001 19.803749
44.061859 31.208 19.799999
44.62986 31.204 19.80125
42.833858 31.836 19.80625
43.429859 31.827999 19.803749
44.04586 31.799999 19.807501
44.661861 31.804001 19.809999
42.84586 32.419998 19.8025
43.453861 32.408001 19.80875
44.057861 32.428001 19.80875
44.653858 32.416 19.799999
42.86586 33.007999 19.8025
43.437859 33.02 19.80625
44.049858 33.023998 19.807501
44.62986 33.023998 19.805
42.849861 33.608002 19.805
43.44186 33.599998 19.80875
44.037861 33.616001 19.8025
44.645859 33.604 19.80875
42.841862 34.200001 19.805
43.44186 34.236 19.80125
44.041859 34.200001 19.80625
44.64986 34.216 19.799999
42.833858 34.835999 19.809999
43.457859 34.804001 19.80875
44.041859 34.832001 19.811251
44.661861 34.807999 19.799999
42.857861 35.416 19.807501
43.429859 35.400002 19.811251
44.065861 35.424 19.8025
44.64986 35.436001 19.803749
42.853859 36.007999 19.803749
43.437859 36.035999 19.799999
44.04586 36 19.811251
44.641861 36 19.803749
42.829861 36.612 19.80125
43.433861 36.612 19.80625
44.033859 36.612 19.811251
44.62986 36.612 19.8025
42.86586 37.216 19.809999
43.44186 37.236 19.811251
44.05386 37.223999 19.80125
44.637859 37.200001 19.799999
42.83786 37.816002 19.803749
43.44186 37.835999 19.80625
44.05386 37.804001 19.799999
44.62986 37.812 19.805
42.849861 38.424 19.80875
43.457859 38.424 19.8025
44.033859 38.431999 19.807501
44.665859 38.411999 19.80625
42.829861 39 19.803749
43.433861 39.007999 19.803749
44.041859 39.023998 19.799999
44.661861 39.004002 19.80125
42.841862 39.632 19.80625
43.445862 39.599998 19.799999
44.029861 39.627998 19.809999
44.665859 39.624001 19.80875
42.833858 40.228001 19.80625
43.465858 40.231998 19.809999
44.05386 40.231998 19.799999
44.62986 40.203999 19.805
42.849861 40.827999 19.8025
43.457859 40.82 19.805
44.033859 40.804001 19.805
44.653858 40.827999 19.805
42.861858 41.436001 19.80125
43.453861 41.431999 19.799999
44.041859 41.403999 19.80875
44.62986 41.400002 19.809999
42.833858 42.023998 19.807501
43.433861 42.032001 19.809999
44.061859 42.015999 19.80625
44.62986 42.012001 19.8025
42.84586 42.616001 19.80625
43.461861 42.608002 19.8025
44.04586 42.599998 19.80125
44.661861 42.636002 19.80125
42.861858 43.208 19.8025
43.457859 43.212002 19.8025
44.049858 43.216 19.80125
44.637859 43.228001 19.811251
42.83786 43.827999 19.80625
43.465858 43.832001 19.811251
44.033859 43.816002 19.80625
44.65786 43.812 19.809999
42.833858 44.436001 19.799999
43.44986 44.428001 19.811251
44.05386 44.419998 19.8025
44.665859 44.411999 19.80875
42.841862 45.032001 19.803749
43.453861 45.007999 19.8025
44.05386 45.015999 19.799999
44.641861 45.02 19.809999
42.84586 45.627998 19.805
43.429859 45.624001 19.80875
44.029861 45.636002 19.811251
44.62986 45.616001 19.807501
42.83786 46.212002 19.805
43.453861 46.208 19.80875
44.041859 46.228001 19.80875
44.661861 46.216 19.799999
42.829861 46.807999 19.807501
43.429859 46.827999 19.8025
44.029861 46.807999 19.80125
44.65786 46.816002 19.811251
42.853859 47.416 19.799999
43.44986 47.424 19.80625
44.037861 47.431999 19.799999
44.653858 47.416 19.805
42.849861 48.035999 19.80125
43.437859 48.028 19.80875
44.04586 48 19.80125
44.641861 48.007999 19.811251
42.857861 48.619999 19.803749
43.429859 48.608002 19.80875
44.065861 48.632 19.803749
44.665859 48.616001 19.811251
42.853859 49.223999 19.799999
43.453861 49.216 19.807501
44.029861 49.236 19.807501
44.645859 49.212002 19.80625
42.841862 49.832001 19.80875
43.44986 49.812 19.799999
44.05386 49.799999 19.80875
44.665859 49.799999 19.811251
42.861858 0.0040000002 20.411249
43.433861 0 20.403749
44.029861 0.035999998 20.401251
44.637859 0.028000001 20.408751
