# .PCD v0.7 - Point Cloud Data file format
VERSION 0.7
FIELDS x y z
SIZE 4 4 4
TYPE F F F
COUNT 1 1 1
WIDTH 1862
HEIGHT 1
VIEWPOINT 0 0 0 1 0 0 0
POINTS 1862
DATA ascii
22.604 23.412001 3.01
23.236 23.416 3.0025001
23.82 23.403999 3
22.035999 24.024 3.01
22.608 24.004 3.01125
23.204 24.004 3.01
23.808001 24.032 3.0050001
22.024 24.615999 3.01
22.612 24.628 3.00125
23.232 24.612 3.0074999
23.804001 24.624001 3
22.004 25.219999 3.0074999
22.612 25.208 3
23.219999 25.212 3.0074999
23.82 25.219999 3.00875
22.02 25.836 3
22.620001 25.804001 3.00125
23.204 25.836 3.0062499
23.799999 25.812 3.0062499
22.011999 26.403999 3
22.636 26.416 3.0074999
23.204 26.424 3.0037501
23.832001 26.403999 3.0062499
22.032 27.035999 3.01
22.624001 27.016001 3.0037501
23.212 27.004 3.0050001
23.823999 27.032 3.0074999
22.028 27.6 3.0062499
22.615999 27.608 3
23.204 27.620001 3.00125
23.804001 27.615999 3.0074999
22.035999 28.232 3.0050001
22.608 28.232 3.00875
23.228001 28.224001 3.01
23.827999 28.208 3.0062499
22.011999 28.827999 3.0074999
22.628 28.82 3.00875
23.219999 28.816 3.00875
23.804001 28.836 3.01125
22.004 29.4 3.0074999
22.620001 29.416 3.0025001
23.212 29.412001 3
23.827999 29.431999 3.01
22.024 30.028 3.0074999
22.620001 30.02 3
23.200001 30.032 3
23.832001 30.028 3.0062499
22.02 30.612 3
22.615999 30.624001 3.00125
23.219999 30.628 3.0037501
23.804001 30.615999 3.00875
22.024 31.228001 3.0037501
22.624001 31.216 3.00125
23.228001 31.204 3.01
23.812 31.232 3.0062499
22.024 31.832001 3.0062499
22.624001 31.823999 3.0037501
23.212 31.816 3.0074999
23.812 31.832001 3.0025001
22.024 32.416 3.00125
22.6 32.428001 3.0074999
23.228001 32.411999 3.0037501
23.799999 32.408001 3
22.011999 33.035999 3.0037501
22.615999 33.015999 3.00125
23.236 33 3.00125
23.82 33.032001 3.00875
22.032 33.608002 3.0037501
22.624001 33.627998 3.0025001
23.200001 33.616001 3.01
23.804001 33.616001 3.00875
22.035999 34.203999 3.00125
22.620001 34.216 3.0037501
23.219999 34.236 3.0050001
23.832001 34.212002 3.01
22.004 34.812 3.00125
22.608 34.832001 3.00125
23.204 34.832001 3.0037501
23.82 34.816002 3.00125
22.035999 35.416 3.00875
22.636 35.428001 3.00125
23.224001 35.436001 3.0050001
23.836 35.416 3
22.016001 36.035999 3
22.6 36.035999 3.0037501
23.204 36.007999 3.01
23.808001 36.015999 3.0074999
22.02 36.627998 3.0074999
22.636 36.616001 3.0025001
23.208 36.612 3.01
23.836 36.616001 3.0074999
22 37.212002 3.0062499
22.624001 37.208 3.01125
23.228001 37.236 3
23.827999 37.236 3.00125
22.007999 37.799999 3.0037501
22.604 37.816002 3.01125
23.228001 37.799999 3.0074999
23.823999 37.835999 3.00125
22.032 38.411999 3.0074999
22.628 38.408001 3.00125
23.212 38.416 3.0074999
23.799999 38.400002 3.01
22.004 39.028 3.01125
22.612 39.023998 3.01125
23.216 39.035999 3.00125
23.836 39 3.0074999
22.032 39.636002 3.0074999
22.624001 39.619999 3.00875
23.236 39.616001 3.0025001
23.832001 39.612 3.0074999
22.004 40.231998 3
22.628 40.231998 3.0025001
23.228001 40.203999 3.0025001
23.827999 40.216 3.01
22.032 40.832001 3.00875
22.636 40.835999 3.01125
23.219999 40.835999 3.01125
23.812 40.82 3.0074999
22.007999 41.428001 3.0025001
22.615999 41.419998 3.0062499
23.200001 41.424 3.0037501
23.808001 41.411999 3.0037501
22.02 42.007999 3.0050001
22.628 42.035999 3
23.228001 42.028 3
23.82 42.028 3.01125
22.024 42.616001 3.01
22.620001 42.599998 3.0074999
23.216 42.616001 3.0037501
23.823999 42.604 3
22.007999 43.203999 3.0074999
22.628 43.223999 3.00125
23.212 43.203999 3.0037501
23.836 43.200001 3.0062499
22 43.827999 3.0050001
22.608 43.816002 3.0037501
23.208 43.804001 3.01
23.808001 43.832001 3
22 44.408001 3.0050001
22.612 44.436001 3.0062499
23.219999 44.411999 3.01125
23.812 44.408001 3.0062499
22.024 45.02 3.01
22.6 45.02 3
23.228001 45.028 3.00875
23.804001 45.035999 3.0050001
22.02 45.612 3.0062499
22.620001 45.624001 3.0062499
23.219999 45.624001 3.01
23.804001 45.608002 3.01125
22.028 46.236 3.0050001
22.624001 46.212002 3.0074999
23.212 46.236 3.0050001
23.812 46.203999 3.01125
22.011999 46.832001 3.01
22.608 46.807999 3.00875
23.224001 46.827999 3.00125
23.812 46.816002 3.01125
22.004 47.436001 3.00875
22.636 47.400002 3.00125
23.200001 47.436001 3.00125
23.816 47.428001 3.0050001
22.007999 48 3.0062499
22.624001 48.02 3.00875
23.228001 48.032001 3.00875
23.82 48.004002 3.01125
22.02 48.636002 3.01
22.624001 48.619999 3.0025001
23.228001 48.624001 3.0037501
23.823999 48.627998 3.0050001
22.032 49.236 3.0062499
22.604 49.220001 3.0037501
23.228001 49.228001 3.0062499
23.808001 49.223999 3.00125
22.004 49.812 3.00125
22.636 49.804001 3.0050001
23.200001 49.824001 3.0050001
23.836 49.816002 3.00125
22.011999 0.0040000002 3.6087501
22.628 0.035999998 3.6075001
23.212 0.028000001 3.60625
23.832001 0.032000002 3.6025
22.004 0.62 3.6112499
22.636 0.63200003 3.6087501
23.200001 0.60399997 3.60375
23.812 0.60000002 3.605
22.032 1.204 3.6025
22.608 1.2079999 3.6075001
23.219999 1.228 3.6112499
23.816 1.216 3.6099999
22 1.8279999 3.6099999
22.628 1.832 3.6075001
23.236 1.804 3.605
23.799999 1.8 3.605
22.032 2.408 3.60625
22.612 2.424 3.6099999
23.228001 2.4159999 3.6012499
23.836 2.4319999 3.60375
22.028 3.0120001 3.5999999
22.624001 3.0280001 3.6087501
23.224001 3.036 3.6075001
23.816 3.0320001 3.605
22.011999 3.628 3.6075001
22.628 3.6359999 3.6099999
23.212 3.628 3.6012499
23.832001 3.5999999 3.6112499
22.024 4.2360001 3.60375
22.628 4.1999998 3.60375
23.208 4.2280002 3.6099999
23.82 4.2199998 3.6087501
22.016001 4.816 3.6075001
22.6 4.8319998 3.605
23.228001 4.8119998 3.60375
23.812 4.8080001 3.6025
22.011999 5.4200001 3.6025
22.615999 5.4239998 3.605
23.212 5.408 3.6075001
23.832001 5.408 3.6075001
22.004 6.0240002 3.6075001
22.636 6.0120001 3.60375
23.232 6.0279999 3.6087501
23.816 6 3.6099999
22 6.6279998 3.6012499
22.620001 6.5999999 3.6075001
23.232 6.6199999 3.6012499
23.808001 6.5999999 3.6087501
22.024 7.2199998 3.6025
22.615999 7.224 3.6075001
23.204 7.2360001 3.6025
23.836 7.204 3.6099999
22.007999 7.836 3.60625
22.608 7.816 3.60625
23.200001 7.8239999 3.6025
23.812 7.8080001 3.605
22.004 8.408 3.5999999
22.612 8.4160004 3.6025
23.208 8.408 3.6112499
23.816 8.4280005 3.60625
22 9.0319996 3.60625
22.620001 9.0360003 3.6099999
23.212 9.0039997 3.6087501
23.799999 9.0200005 3.60375
22.032 9.6280003 3.5999999
22.6 9.6040001 3.6025
23.228001 9.6160002 3.605
23.836 9.6280003 3.5999999
22.011999 10.2 3.6025
22.608 10.224 3.6112499
23.200001 10.236 3.6112499
23.827999 10.224 3.6099999
22.02 10.804 3.6025
22.608 10.804 3.6087501
23.224001 10.836 3.60625
23.823999 10.808 3.6099999
22 11.404 3.6025
22.624001 11.408 3.6025
23.224001 11.42 3.605
23.832001 11.428 3.5999999
22 12.036 3.6012499
22.636 12.024 3.6087501
23.200001 12.004 3.6099999
23.808001 12.016 3.6025
22.004 12.6 3.6012499
22.632 12.632 3.60625
23.224001 12.6 3.6075001
23.804001 12.624 3.6099999
22.011999 13.208 3.60375
22.636 13.208 3.60375
23.236 13.216 3.605
23.804001 13.216 3.6012499
22 13.824 3.6025
22.636 13.832 3.6099999
23.204 13.804 3.5999999
23.816 13.8 3.6099999
22 14.424 3.6099999
22.632 14.436 3.6075001
23.236 14.416 3.5999999
23.816 14.412 3.60375
22.028 15.02 3.6087501
22.615999 15.024 3.60375
23.219999 15.032 3.6112499
23.836 15.028 3.6112499
22.032 15.6 3.6012499
22.632 15.628 3.6012499
23.236 15.628 3.6112499
23.827999 15.628 3.6012499
22.024 16.224001 3.60625
22.624001 16.204 3.6112499
23.236 16.232 3.605
23.836 16.216 3.6025
22.016001 16.836 3.6025
22.624001 16.836 3.5999999
23.219999 16.827999 3.6025
23.832001 16.827999 3.6112499
22.035999 17.424 3.6099999
22.604 17.424 3.6075001
23.208 17.408001 3.6025
23.836 17.431999 3.60375
22 18 3.605
22.624001 18.004 3.6099999
23.232 18.02 3.6099999
23.804001 18.004 3.6112499
22.011999 18.636 3.6099999
22.628 18.628 3.60625
23.228001 18.636 3.6025
23.827999 18.6 3.5999999
22.011999 19.216 3.6025
22.624001 19.212 3.6025
23.236 19.216 3.6025
23.82 19.200001 3.60625
22.016001 19.804001 3.6012499
22.615999 19.816 3.605
23.212 19.836 3.60625
23.804001 19.823999 3.60375
22.032 20.42 3.6025
22.6 20.412001 3.605
23.208 20.424 3.6099999
23.816 20.416 3.60375
22.028 21.024 3.6087501
22.604 21.004 3.5999999
23.228001 21.028 3.6012499
23.799999 21.004 3.6087501
22.024 21.624001 3.6075001
22.608 21.628 3.605
23.228001 21.624001 3.5999999
23.804001 21.632 3.60625
22.02 22.212 3.60375
22.620001 22.228001 3.6099999
23.232 22.224001 3.605
23.832001 22.200001 3.6087501
22.032 22.836 3.60625
22.604 22.836 3.6075001
23.232 22.827999 3.60375
23.823999 22.836 3.6025
22 23.431999 3.5999999
22.608 23.436001 3.6012499
23.228001 23.424 3.605
23.804001 23.403999 3.60375
22.035999 24 3.6025
22.620001 24 3.6025
23.208 24.032 3.60375
23.836 24.004 3.6025
22.032 24.604 3.6012499
22.604 24.628 3.60375
23.219999 24.636 3.6012499
23.832001 24.608 3.6012499
22.035999 25.236 3.6112499
22.620001 25.208 3.6012499
23.200001 25.212 3.60375
23.808001 25.232 3.60375
22.024 25.812 3.60375
22.636 25.816 3.605
23.212 25.808001 3.60625
23.82 25.82 3.605
22.032 26.403999 3.60375
22.636 26.436001 3.60625
23.208 26.4 3.6087501
23.808001 26.427999 3.6112499
22.02 27.028 3.60375
22.632 27 3.60375
23.212 27.024 3.6099999
23.823999 27.032 3.60375
22.007999 27.604 3.60625
22.636 27.624001 3.60375
23.212 27.615999 3.605
23.823999 27.624001 3.60625
22.007999 28.232 3.6087501
22.604 28.208 3.605
23.200001 28.228001 3.6012499
23.82 28.228001 3.6012499
22.004 28.799999 3.5999999
22.636 28.823999 3.6099999
23.216 28.799999 3.6012499
23.808001 28.836 3.6099999
22.02 29.408001 3.605
22.604 29.436001 3.5999999
23.224001 29.412001 3.6012499
23.812 29.416 3.60375
22.028 30.024 3.60375
22.6 30.007999 3.5999999
23.208 30.02 3.6012499
23.816 30.024 3.6112499
22.007999 30.604 3.5999999
22.620001 30.620001 3.6012499
23.212 30.6 3.605
23.832001 30.612 3.60625
22 31.204 3.5999999
22.604 31.216 3.605
23.228001 31.212 3.6025
23.808001 31.219999 3.605
22.007999 31.827999 3.6012499
22.620001 31.812 3.6099999
23.219999 31.82 3.6112499
23.827999 31.812 3.6075001
22.032 32.424 3.6099999
22.615999 32.424 3.6012499
23.236 32.428001 3.6025
23.836 32.400002 3.6099999
22.02 33.035999 3.60375
22.632 33.004002 3.6099999
23.216 33.015999 3.6099999
23.823999 33.035999 3.6012499
22.016001 33.624001 3.6112499
22.620001 33.612 3.6025
23.204 33.616001 3.6099999
23.836 33.632 3.60625
22 34.231998 3.605
22.615999 34.236 3.605
23.208 34.220001 3.605
23.827999 34.212002 3.60625
22.02 34.827999 3.6012499
22.612 34.82 3.60375
23.219999 34.835999 3.6112499
23.816 34.816002 3.60375
22.024 35.428001 3.6112499
22.624001 35.424 3.6087501
23.212 35.431999 3.6087501
23.827999 35.408001 3.6087501
22.016001 36.023998 3.605
22.6 36.012001 3.6087501
23.228001 36.035999 3.6075001
23.804001 36.015999 3.605
22.016001 36.636002 3.60375
22.612 36.619999 3.5999999
23.232 36.612 3.6087501
23.827999 36.599998 3.605
22.02 37.220001 3.605
22.608 37.212002 3.6087501
23.204 37.236 3.60375
23.82 37.203999 3.6112499
22.016001 37.832001 3.6099999
22.612 37.835999 3.605
23.228001 37.812 3.6075001
23.799999 37.835999 3.6012499
22.007999 38.428001 3.60625
22.6 38.428001 3.6087501
23.224001 38.408001 3.6025
23.799999 38.424 3.6087501
22.028 39 3.6099999
22.612 39.02 3.6112499
23.208 39 3.5999999
23.808001 39.012001 3.6112499
22.032 39.608002 3.60625
22.615999 39.616001 3.6075001
23.224001 39.627998 3.60625
23.812 39.627998 3.6025
22.007999 40.212002 3.6075001
22.615999 40.220001 3.60375
23.216 40.212002 3.60375
23.808001 40.231998 3.5999999
22.007999 40.807999 3.6025
22.608 40.824001 3.60625
23.212 40.816002 3.6112499
23.799999 40.835999 3.605
22.024 41.419998 3.6012499
22.608 41.400002 3.5999999
23.216 41.408001 3.60625
23.812 41.431999 3.5999999
22.032 42.007999 3.60375
22.604 42.02 3.60375
23.212 42.035999 3.60625
23.823999 42.012001 3.60375
22.011999 42.624001 3.6099999
22.612 42.636002 3.6087501
23.228001 42.619999 3.605
23.799999 42.636002 3.605
22 43.223999 3.6075001
22.620001 43.236 3.6075001
23.219999 43.228001 3.6112499
23.804001 43.200001 3.6075001
22.024 43.812 3.60625
22.608 43.835999 3.6099999
23.219999 43.82 3.6075001
23.82 43.832001 3.60625
22.007999 44.428001 3.60375
22.632 44.428001 3.6025
23.208 44.436001 3.6099999
23.799999 44.424 3.6112499
22.028 45.004002 3.6075001
22.632 45.015999 3.6099999
23.216 45.004002 3.6025
23.836 45.02 3.60375
22.035999 45.608002 3.5999999
22.620001 45.632 3.6099999
23.212 45.608002 3.6087501
23.823999 45.604 3.6075001
22.032 46.212002 3.60625
22.636 46.223999 3.60375
23.232 46.220001 3.60625
23.827999 46.212002 3.6012499
22.02 46.827999 3.6025
22.636 46.832001 3.6112499
23.219999 46.827999 3.6025
23.82 46.816002 3.6025
22.024 47.428001 3.605
22.612 47.411999 3.60625
23.208 47.416 3.6012499
23.836 47.411999 3.6112499
22.011999 48.012001 3.605
22.6 48 3.6112499
23.204 48.032001 3.6075001
23.823999 48.028 3.6075001
22.028 48.616001 3.60625
22.636 48.599998 3.6112499
23.212 48.632 3.6112499
23.832001 48.612 3.6025
22.02 49.220001 3.6099999
22.624001 49.228001 3.6012499
23.228001 49.200001 3.60625
23.804001 49.200001 3.6087501
22.007999 49.812 3.60625
22.632 49.835999 3.60625
23.224001 49.827999 3.6112499
23.804001 49.832001 3.6012499
22.011999 0.0080000004 4.2012501
22.608 0.0080000004 4.2062502
23.224001 0.028000001 4.2024999
23.82 0.024 4.2112498
22.032 0.61199999 4.2112498
22.620001 0.62800002 4.2012501
23.212 0.63599998 4.2062502
23.799999 0.60000002 4.2075
22.028 1.224 4.2062502
22.628 1.2 4.2049999
23.200001 1.212 4.21
23.816 1.22 4.1999998
22.035999 1.812 4.2087498
22.612 1.832 4.2062502
23.212 1.8279999 4.2112498
23.816 1.808 4.21
22.024 2.428 4.2112498
22.612 2.4319999 4.2112498
23.236 2.4200001 4.21
23.82 2.4159999 4.21
22.004 3.0280001 4.2037501
22.636 3.0039999 4.1999998
23.236 3.0079999 4.2037501
23.832001 3.02 4.2024999
22.016001 3.632 4.2012501
22.620001 3.6199999 4.2062502
23.219999 3.612 4.2037501
23.816 3.6240001 4.2012501
22.024 4.2280002 4.21
22.624001 4.2160001 4.2062502
23.216 4.2199998 4.2024999
23.836 4.224 4.2062502
22.035999 4.8280001 4.2087498
22.608 4.8239999 4.2024999
23.224001 4.8080001 4.2037501
23.827999 4.836 4.21
22.011999 5.4159999 4.2037501
22.624001 5.4000001 4.2112498
23.236 5.4239998 4.21
23.836 5.408 4.2037501
22.016001 6.0320001 4.1999998
22.624001 6.0359998 4.2087498
23.212 6.0320001 4.2049999
23.799999 6.0040002 4.2024999
22.011999 6.6279998 4.2075
22.632 6.6279998 4.2062502
23.232 6.5999999 4.2012501
23.804001 6.632 4.2049999
22 7.2360001 4.2024999
22.6 7.2319999 4.2062502
23.212 7.2119999 4.2062502
23.816 7.204 4.2062502
22.011999 7.8200002 4.2037501
22.628 7.8200002 4.2075
23.208 7.8000002 4.2075
23.832001 7.8000002 4.2037501
22.024 8.4320002 4.2062502
22.636 8.4359999 4.2037501
23.212 8.4040003 4.2024999
23.823999 8.408 4.1999998
22.011999 9.0200005 4.2062502
22.632 9.0039997 4.2112498
23.219999 9.0159998 4.2049999
23.804001 9.0159998 4.2012501
22.035999 9.6239996 4.2049999
22.620001 9.6239996 4.2075
23.200001 9.6079998 4.2062502
23.82 9.6079998 4.2049999
22 10.228 4.21
22.608 10.212 4.1999998
23.219999 10.224 4.2087498
23.808001 10.228 4.2112498
22.004 10.816 4.2062502
22.628 10.82 4.2112498
23.204 10.82 4.2087498
23.827999 10.808 4.2075
22.011999 11.412 4.21
22.632 11.4 4.2024999
23.219999 11.404 4.1999998
23.812 11.42 4.2037501
22.011999 12 4.2024999
22.6 12.02 4.2112498
23.204 12.024 4.2062502
23.827999 12.024 4.2012501
22.032 12.636 4.21
22.632 12.624 4.1999998
23.216 12.636 4.2062502
23.808001 12.6 4.2075
22.028 13.22 4.2112498
22.628 13.2 4.2049999
23.208 13.22 4.2087498
23.823999 13.22 4.2024999
22.028 13.836 4.1999998
22.612 13.832 4.2075
23.216 13.824 4.2087498
23.816 13.816 4.2037501
22.024 14.4 4.2062502
22.608 14.42 4.2062502
23.200001 14.408 4.2024999
23.836 14.404 4.2024999
22.011999 15.02 4.2087498
22.608 15.008 4.2049999
23.216 15.036 4.2062502
23.82 15.016 4.2037501
22.011999 15.6 4.2024999
22.604 15.616 4.21
23.224001 15.604 4.2112498
23.804001 15.62 4.2049999
22.032 16.219999 4.21
22.6 16.216 4.2012501
23.216 16.236 4.2075
23.812 16.208 4.21
22 16.832001 4.1999998
22.620001 16.82 4.2049999
23.204 16.804001 4.2062502
23.812 16.816 4.2012501
22.004 17.4 4.2024999
22.608 17.408001 4.2087498
23.224001 17.408001 4.2049999
23.823999 17.412001 4.1999998
22.028 18.028 4.1999998
22.615999 18.011999 4.2049999
23.216 18.011999 4.2049999
23.823999 18 4.1999998
22.011999 18.604 4.2012501
22.6 18.615999 4.2062502
23.204 18.632 4.2062502
23.823999 18.6 4.2112498
22.011999 19.236 4.2024999
22.632 19.228001 4.2087498
23.232 19.219999 4.2075
23.799999 19.204 4.2112498
22.024 19.827999 4.2049999
22.604 19.816 4.2062502
23.204 19.836 4.21
23.816 19.836 4.2062502
22.035999 20.408001 4.2062502
22.624001 20.431999 4.2062502
23.232 20.416 4.2075
23.808001 20.416 4.2049999
22.035999 21.016001 4.2012501
22.628 21.02 4.2024999
23.236 21.011999 4.2112498
23.812 21.016001 4.2062502
22 21.628 4.2075
22.604 21.604 4.2087498
23.224001 21.6 4.1999998
23.804001 21.636 4.1999998
22.032 22.228001 4.2049999
22.620001 22.236 4.1999998
23.204 22.200001 4.2062502
23.808001 22.236 4.2024999
22.024 22.832001 4.2062502
22.620001 22.816 4.1999998
23.212 22.823999 4.2087498
23.836 22.827999 4.2112498
22.028 23.412001 4.2012501
22.636 23.424 4.1999998
23.236 23.42 4.2112498
23.823999 23.408001 4.1999998
22.032 24.02 4.1999998
22.612 24.028 4.2024999
23.219999 24.011999 4.1999998
23.812 24 4.2075
22.011999 24.620001 4.2037501
22.608 24.628 4.1999998
23.212 24.624001 4.2075
23.827999 24.620001 4.2024999
22.028 25.224001 4.2112498
22.628 25.216 4.2037501
23.228001 25.212 4.21
23.799999 25.232 4.2087498
22.016001 25.823999 4.1999998
22.615999 25.836 4.2037501
23.204 25.816 4.1999998
23.816 25.823999 4.2087498
22.024 26.408001 4.2037501
22.608 26.436001 4.1999998
23.228001 26.431999 4.2112498
23.823999 26.427999 4.2062502
22 27.028 4.1999998
22.6 27.035999 4.2112498
23.232 27.011999 4.2062502
23.799999 27.035999 4.2075
22.02 27.6 4.1999998
22.624001 27.624001 4.21
23.212 27.620001 4.2024999
23.836 27.628 4.2012501
22.035999 28.216 4.2024999
22.6 28.212 4.2112498
23.224001 28.219999 4.21
23.823999 28.219999 4.2087498
22.028 28.82 4.1999998
22.615999 28.832001 4.1999998
23.200001 28.812 4.2024999
23.799999 28.836 4.2012501
22.004 29.42 4.2075
22.612 29.416 4.2062502
23.219999 29.42 4.2024999
23.836 29.424 4.2062502
22 30.007999 4.1999998
22.636 30 4.2087498
23.224001 30.032 4.2037501
23.836 30.007999 4.2012501
22.004 30.612 4.2075
22.620001 30.620001 4.2075
23.232 30.624001 4.2012501
23.823999 30.6 4.2062502
22.007999 31.228001 4.2024999
22.615999 31.232 4.21
23.204 31.232 4.2024999
23.804001 31.228001 4.2037501
22 31.823999 4.2037501
22.612 31.827999 4.2087498
23.224001 31.832001 4.2024999
23.812 31.82 4.1999998
22.004 32.416 4.2075
22.608 32.400002 4.21
23.236 32.416 4.2087498
23.804001 32.431999 4.2062502
22.007999 33.035999 4.2075
22.615999 33.007999 4.2062502
23.236 33.012001 4.2012501
23.816 33.032001 4.21
22.007999 33.627998 4.21
22.624001 33.599998 4.2075
23.224001 33.612 4.1999998
23.812 33.619999 4.2024999
22.011999 34.223999 4.2087498
22.612 34.236 4.2087498
23.200001 34.203999 4.2112498
23.823999 34.231998 4.2037501
22.007999 34.835999 4.21
22.620001 34.816002 4.2087498
23.224001 34.832001 4.2049999
23.823999 34.816002 4.2075
22.007999 35.403999 4.2112498
22.615999 35.424 4.2075
23.236 35.403999 4.2049999
23.832001 35.416 4.2062502
22.02 36.028 4.2112498
22.624001 36.012001 4.2087498
23.200001 36.028 4.21
23.832001 36.012001 4.2024999
22.028 36.636002 4.2024999
22.612 36.627998 4.2087498
23.204 36.599998 4.1999998
23.808001 36.624001 4.21
22 37.220001 4.2112498
22.615999 37.212002 4.2075
23.208 37.203999 4.2037501
23.804001 37.228001 4.21
22 37.835999 4.2075
22.632 37.799999 4.2112498
23.212 37.835999 4.1999998
23.82 37.812 4.2087498
22.016001 38.424 4.2112498
22.615999 38.436001 4.2075
23.216 38.436001 4.2037501
23.816 38.424 4.2087498
22.007999 39 4.21
22.620001 39.004002 4.2087498
23.212 39.004002 4.2112498
23.804001 39.035999 4.2112498
22.007999 39.608002 4.1999998
22.608 39.599998 4.2037501
23.208 39.616001 4.2024999
23.812 39.604 4.2012501
22.004 40.220001 4.2024999
22.620001 40.203999 4.1999998
23.208 40.212002 4.1999998
23.808001 40.200001 4.2012501
22.004 40.816002 4.2049999
22.6 40.827999 4.2049999
23.204 40.799999 4.21
23.808001 40.816002 4.1999998
22.028 41.424 4.2062502
22.636 41.408001 4.21
23.200001 41.411999 4.2037501
23.82 41.431999 4.2062502
22.02 42.007999 4.21
22.632 42.015999 4.2012501
23.204 42.032001 4.2062502
23.823999 42.032001 4.2049999
22.007999 42.599998 4.2049999
22.608 42.616001 4.2112498
23.212 42.604 4.2087498
23.799999 42.604 4.2112498
22.032 43.212002 4.2037501
22.604 43.231998 4.2037501
23.232 43.223999 4.2075
23.836 43.223999 4.2024999
22 43.827999 4.1999998
22.628 43.82 4.2012501
23.204 43.827999 4.2012501
23.823999 43.807999 4.2087498
22.028 44.419998 4.21
22.615999 44.428001 4.2112498
23.216 44.419998 4.2062502
23.836 44.431999 4.2062502
22.007999 45.028 4.2012501
22.6 45.023998 4.2112498
23.212 45.032001 4.2087498
23.82 45.02 4.2049999
22.024 45.632 4.2049999
22.636 45.616001 4.2075
23.224001 45.604 4.2037501
23.82 45.632 4.1999998
22.024 46.216 4.2087498
22.612 46.212002 4.2062502
23.236 46.228001 4.2024999
23.799999 46.200001 4.1999998
22.007999 46.812 4.1999998
22.636 46.799999 4.2062502
23.219999 46.827999 4.2049999
23.836 46.832001 4.1999998
22.02 47.428001 4.2049999
22.6 47.416 4.2024999
23.200001 47.400002 4.2075
23.827999 47.416 4.2012501
22.02 48.02 4.21
22.636 48.028 4.21
23.200001 48.035999 4.2037501
23.808001 48.032001 4.2075
22.032 48.624001 4.2062502
22.615999 48.619999 4.2037501
23.224001 48.604 4.1999998
23.799999 48.612 4.2049999
22.016001 49.216 4.2087498
22.608 49.212002 4.2037501
23.212 49.231998 4.21
23.816 49.200001 4.2062502
22.016001 49.799999 4.2087498
22.632 49.807999 4.2087498
23.224001 49.807999 4.2037501
23.804001 49.832001 4.2112498
22.024 0.028000001 4.8024998
22.636 0.035999998 4.8062501
23.212 0.016000001 4.80125
23.808001 0.024 4.8087502
22.028 0.60799998 4.8087502
22.628 0.62400001 4.8087502
23.219999 0.60000002 4.8087502
23.808001 0.60000002 4.8024998
22.035999 1.224 4.8074999
22.612 1.2359999 4.8087502
23.208 1.224 4.8049998
23.816 1.22 4.80375
22.035999 1.8 4.8112502
22.612 1.812 4.8099999
23.200001 1.808 4.8000002
23.827999 1.8 4.8099999
22.02 2.4200001 4.8099999
22.615999 2.428 4.80125
23.232 2.424 4.8087502
23.82 2.404 4.8112502
22.016001 3.0120001 4.8062501
22.632 3.036 4.8000002
23.212 3.0039999 4.8024998
23.812 3.016 4.8062501
22.011999 3.6159999 4.8000002
22.612 3.612 4.8000002
23.204 3.632 4.8087502
23.804001 3.612 4.8074999
22.007999 4.204 4.8049998
22.608 4.2319999 4.8074999
23.204 4.2080002 4.80125
23.832001 4.2080002 4.80125
22 4.8239999 4.8024998
22.608 4.8039999 4.8074999
23.200001 4.816 4.8024998
23.799999 4.836 4.8062501
22.007999 5.408 4.8074999
22.636 5.4200001 4.8112502
23.228001 5.4000001 4.8024998
23.804001 5.408 4.80125
22.028 6.02 4.8062501
22.636 6.0120001 4.8099999
23.208 6.02 4.8074999
23.816 6.0279999 4.8112502
22.007999 6.6279998 4.8062501
22.624001 6.6279998 4.8074999
23.204 6.6360002 4.8099999
23.836 6.5999999 4.8062501
22.032 7.2280002 4.8062501
22.612 7.204 4.8112502
23.224001 7.2319999 4.8049998
23.804001 7.2360001 4.8112502
22.004 7.8039999 4.8049998
22.636 7.8280001 4.8024998
23.232 7.836 4.80125
23.82 7.8280001 4.8112502
22.004 8.4040003 4.8000002
22.604 8.3999996 4.80375
23.228001 8.4359999 4.8000002
23.808001 8.4160004 4.80125
22.016001 9 4.8024998
22.632 9.0120001 4.80375
23.200001 9.0200005 4.8087502
23.823999 9.0240002 4.8049998
22 9.6199999 4.8074999
22.608 9.6079998 4.80375
23.212 9.6160002 4.8074999
23.82 9.6199999 4.8087502
22.032 10.216 4.8099999
22.604 10.236 4.8024998
23.216 10.212 4.8024998
23.823999 10.212 4.8062501
22.007999 10.812 4.8024998
22.636 10.808 4.8112502
23.219999 10.808 4.8074999
23.812 10.824 4.8099999
22.035999 11.404 4.8024998
22.620001 11.428 4.8000002
23.208 11.42 4.8074999
23.799999 11.424 4.8062501
22.007999 12.004 4.8099999
22.624001 12.036 4.8024998
23.216 12.004 4.8087502
23.823999 12.008 4.80125
22.02 12.6 4.8074999
22.604 12.612 4.8024998
23.208 12.608 4.8049998
23.823999 12.632 4.80125
22.024 13.208 4.8099999
22.612 13.22 4.8062501
23.200001 13.236 4.8099999
23.836 13.224 4.8087502
22.011999 13.8 4.80125
22.608 13.832 4.8062501
23.216 13.816 4.8062501
23.799999 13.828 4.8112502
22.016001 14.436 4.80375
22.6 14.432 4.80375
23.212 14.416 4.8074999
23.808001 14.436 4.80375
22.035999 15.008 4.8024998
22.628 15.012 4.8000002
23.224001 15.024 4.8000002
23.836 15 4.80125
22.02 15.624 4.8062501
22.608 15.632 4.8049998
23.204 15.62 4.8074999
23.82 15.62 4.8049998
22 16.236 4.8000002
22.624001 16.212 4.8024998
23.204 16.208 4.8049998
23.816 16.204 4.8087502
22.016001 16.836 4.8062501
22.628 16.836 4.8087502
23.232 16.823999 4.8049998
23.82 16.832001 4.8024998
22.035999 17.408001 4.8112502
22.628 17.436001 4.8062501
23.212 17.436001 4.8074999
23.816 17.431999 4.8112502
22.024 18.035999 4.80375
22.608 18.02 4.8074999
23.236 18 4.8062501
23.823999 18.035999 4.8074999
22.011999 18.628 4.8049998
22.628 18.608 4.8062501
23.208 18.612 4.8112502
23.812 18.612 4.8099999
22.032 19.224001 4.8112502
22.624001 19.200001 4.8112502
23.228001 19.232 4.8112502
23.808001 19.208 4.8074999
22.032 19.812 4.8074999
22.624001 19.836 4.8062501
23.216 19.812 4.8049998
23.804001 19.808001 4.8099999
22.024 20.424 4.8049998
22.620001 20.4 4.8087502
23.219999 20.4 4.80375
23.816 20.427999 4.8074999
22.016001 21.024 4.8074999
22.620001 21.035999 4.8112502
23.204 21.028 4.8024998
23.799999 21.02 4.8049998
22.028 21.6 4.8112502
22.608 21.604 4.80375
23.200001 21.636 4.8024998
23.823999 21.624001 4.8049998
22.011999 22.204 4.8049998
22.636 22.228001 4.80375
23.228001 22.212 4.8000002
23.82 22.232 4.80125
22.016001 22.808001 4.8099999
22.636 22.816 4.8074999
23.219999 22.804001 4.8074999
23.816 22.812 4.8112502
22.028 23.424 4.8000002
22.636 23.416 4.8074999
23.212 23.431999 4.8087502
23.799999 23.436001 4.8049998
22.02 24.024 4.8000002
22.620001 24.004 4.8000002
23.232 24.032 4.8024998
23.836 24.035999 4.8099999
22.02 24.615999 4.8000002
22.612 24.632 4.8062501
23.208 24.628 4.80375
23.816 24.628 4.8099999
22 25.208 4.8099999
22.628 25.208 4.8087502
23.212 25.232 4.8062501
23.812 25.219999 4.8074999
22.024 25.816 4.8074999
22.632 25.812 4.8062501
23.228001 25.832001 4.80125
23.836 25.812 4.8112502
22.016001 26.42 4.8087502
22.632 26.436001 4.8074999
23.232 26.403999 4.8099999
23.823999 26.4 4.80125
22.011999 27.011999 4.80125
22.632 27.035999 4.8099999
23.224001 27.02 4.8024998
23.812 27.02 4.8087502
22 27.615999 4.8087502
22.608 27.612 4.8000002
23.212 27.6 4.8087502
23.808001 27.6 4.8074999
22.032 28.232 4.8112502
22.628 28.216 4.8112502
23.200001 28.236 4.8062501
23.812 28.228001 4.8049998
22.004 28.82 4.80125
22.615999 28.799999 4.8099999
23.212 28.812 4.80375
23.804001 28.82 4.8099999
22.004 29.4 4.8000002
22.636 29.412001 4.8000002
23.228001 29.403999 4.8000002
23.827999 29.4 4.8049998
22.024 30 4.8062501
22.604 30.011999 4.8024998
23.228001 30.028 4.8000002
23.832001 30.004 4.8000002
22.035999 30.615999 4.80375
22.615999 30.628 4.8000002
23.216 30.636 4.80125
23.82 30.632 4.8049998
22.02 31.219999 4.8087502
22.632 31.208 4.8099999
23.208 31.204 4.8000002
23.832001 31.208 4.8074999
22.007999 31.808001 4.80375
22.615999 31.808001 4.8074999
23.219999 31.804001 4.8024998
23.799999 31.82 4.8000002
22.011999 32.408001 4.8112502
22.615999 32.428001 4.8087502
23.200001 32.416 4.8049998
23.836 32.408001 4.8112502
22.028 33.028 4.8024998
22.632 33.02 4.8049998
23.224001 33.035999 4.8099999
23.836 33.015999 4.80125
22.02 33.604 4.8049998
22.628 33.612 4.8024998
23.228001 33.624001 4.8049998
23.832001 33.608002 4.80125
22.028 34.208 4.8087502
22.615999 34.216 4.8000002
23.212 34.203999 4.8087502
23.82 34.203999 4.8049998
22.004 34.835999 4.8062501
22.6 34.832001 4.80125
23.212 34.812 4.8024998
23.827999 34.812 4.8074999
22.035999 35.408001 4.8049998
22.620001 35.403999 4.8087502
23.224001 35.400002 4.80125
23.823999 35.416 4.8062501
22.024 36.035999 4.8112502
22.620001 36.015999 4.8024998
23.204 36.032001 4.8024998
23.823999 36 4.8000002
22.032 36.612 4.8074999
22.608 36.608002 4.8112502
23.200001 36.616001 4.80375
23.82 36.636002 4.8074999
22.007999 37.231998 4.8087502
22.612 37.216 4.80375
23.236 37.208 4.80375
23.799999 37.228001 4.8087502
22.007999 37.832001 4.8087502
22.615999 37.824001 4.8087502
23.219999 37.816002 4.8024998
23.812 37.835999 4.8062501
22.016001 38.436001 4.80125
22.628 38.424 4.8000002
23.216 38.431999 4.8000002
23.812 38.416 4.8049998
22.024 39.02 4.8074999
22.636 39.02 4.80375
23.236 39.028 4.80375
23.823999 39.007999 4.8000002
22.016001 39.636002 4.8074999
22.632 39.608002 4.8062501
23.219999 39.624001 4.8087502
23.823999 39.619999 4.80375
22.035999 40.236 4.8049998
22.636 40.216 4.8000002
23.216 40.203999 4.8062501
23.808001 40.208 4.8024998
22.032 40.804001 4.80125
22.604 40.832001 4.8062501
23.204 40.816002 4.8049998
23.832001 40.816002 4.8099999
22.02 41.400002 4.8074999
22.615999 41.424 4.8024998
23.200001 41.419998 4.80375
23.816 41.419998 4.8000002
22.024 42.004002 4.80125
22.612 42.012001 4.8062501
23.219999 42.004002 4.8087502
23.832001 42.012001 4.8087502
22.016001 42.624001 4.80375
22.6 42.624001 4.8087502
23.204 42.616001 4.8087502
23.827999 42.632 4.8074999
22.004 43.231998 4.80125
22.628 43.216 4.8099999
23.228001 43.208 4.80125
23.799999 43.220001 4.8062501
22.02 43.807999 4.8099999
22.615999 43.804001 4.80125
23.204 43.827999 4.8000002
23.823999 43.827999 4.8099999
22.024 44.431999 4.8024998
22.620001 44.431999 4.80375
23.204 44.403999 4.80125
23.82 44.431999 4.8099999
22.02 45.02 4.8000002
22.628 45.02 4.8074999
23.208 45.012001 4.8000002
23.799999 45.028 4.80375
22.016001 45.604 4.8000002
22.624001 45.636002 4.8099999
23.216 45.619999 4.8099999
23.836 45.604 4.8099999
22.007999 46.208 4.8000002
22.612 46.236 4.8099999
23.212 46.220001 4.8074999
23.816 46.208 4.80375
22.007999 46.824001 4.8074999
22.608 46.832001 4.8074999
23.224001 46.816002 4.8112502
23.823999 46.799999 4.8099999
22.024 47.428001 4.8049998
22.628 47.424 4.8062501
23.219999 47.431999 4.8112502
23.82 47.411999 4.80125
22.024 48.028 4.8099999
22.608 48.012001 4.8000002
23.228001 48.02 4.8099999
23.816 48.035999 4.8099999
22.007999 48.619999 4.80375
22.604 48.616001 4.8062501
23.236 48.608002 4.8024998
23.82 48.636002 4.8099999
22.007999 49.228001 4.8099999
22.608 49.208 4.8024998
23.219999 49.200001 4.80125
23.812 49.216 4.8049998
22.02 49.807999 4.8112502
22.612 49.832001 4.8099999
23.204 49.799999 4.8074999
23.823999 49.812 4.8024998
22.007999 0.0080000004 5.4050002
22.615999 0.032000002 5.4050002
23.219999 0 5.4012499
23.82 0.016000001 5.40625
22.035999 0.60399997 5.4074998
22.6 0.616 5.4025002
23.216 0.63599998 5.4050002
23.82 0.616 5.4025002
22.024 1.232 5.4050002
22.608 1.216 5.4087501
23.224001 1.232 5.4025002
23.799999 1.22 5.4000001
22.024 1.8 5.4025002
22.628 1.8279999 5.4112501
23.219999 1.8279999 5.4000001
23.812 1.8279999 5.40625
22.02 2.4159999 5.4074998
22.6 2.404 5.4012499
23.216 2.428 5.4012499
23.836 2.404 5.40625
22.032 3.0280001 5.4074998
22.6 3.0320001 5.4012499
23.200001 3.016 5.4012499
23.82 3.016 5.4099998
22.016001 3.6359999 5.4087501
22.615999 3.6159999 5.40625
23.204 3.6359999 5.4012499
23.799999 3.6040001 5.4025002
22.004 4.224 5.4025002
22.615999 4.2280002 5.4037499
23.204 4.2199998 5.4037499
23.827999 4.224 5.4037499
22.032 4.8239999 5.4112501
22.604 4.8119998 5.4037499
23.208 4.8280001 5.4050002
23.836 4.816 5.4099998
22.016001 5.428 5.4000001
22.628 5.428 5.4012499
23.200001 5.4000001 5.4087501
23.808001 5.4159999 5.4074998
22.028 6.0240002 5.4025002
22.6 6.02 5.4099998
23.212 6.0159998 5.4074998
23.812 6.02 5.4000001
22.032 6.6279998 5.4112501
22.612 6.6279998 5.40625
23.212 6.612 5.4037499
23.82 6.612 5.4025002
22.028 7.2119999 5.40625
22.624001 7.2199998 5.4112501
23.212 7.2160001 5.4087501
23.82 7.2199998 5.4037499
22.011999 7.8319998 5.4112501
22.604 7.8119998 5.4050002
23.204 7.8080001 5.4050002
23.804001 7.8280001 5.4037499
22.032 8.408 5.4099998
22.612 8.4320002 5.4012499
23.224001 8.4280005 5.4074998
23.804001 8.4200001 5.4037499
22.007999 9.0319996 5.4099998
22.608 9.0200005 5.4037499
23.228001 9 5.4037499
23.823999 9.0080004 5.4087501
22.007999 9.6199999 5.4012499
22.632 9.632 5.4099998
23.212 9.6280003 5.4025002
23.808001 9.6000004 5.4000001
22.02 10.224 5.4087501
22.608 10.236 5.4037499
23.219999 10.208 5.4037499
23.812 10.224 5.4012499
22.032 10.812 5.4012499
22.608 10.804 5.40625
23.204 10.82 5.4012499
23.808001 10.816 5.4112501
22.007999 11.428 5.4074998
22.615999 11.404 5.4087501
23.219999 11.428 5.40625
23.816 11.404 5.40625
22.035999 12.032 5.4112501
22.612 12.008 5.40625
23.216 12 5.4000001
23.827999 12.016 5.4012499
22.011999 12.62 5.4074998
22.624001 12.628 5.4025002
23.219999 12.636 5.4000001
23.808001 12.624 5.4037499
22.004 13.204 5.4025002
22.632 13.228 5.4037499
23.212 13.228 5.4025002
23.816 13.208 5.4074998
22.004 13.832 5.4099998
22.604 13.828 5.4037499
23.216 13.8 5.4099998
23.804001 13.824 5.4099998
22.02 14.416 5.4112501
22.628 14.432 5.40625
23.204 14.436 5.4099998
23.812 14.428 5.4074998
22.035999 15.012 5.40625
22.604 15.036 5.4112501
23.228001 15.004 5.4087501
23.827999 15.008 5.4050002
22 15.636 5.4087501
22.604 15.6 5.40625
23.236 15.628 5.4012499
23.799999 15.62 5.4112501
22.032 16.224001 5.4000001
22.624001 16.204 5.4000001
23.216 16.200001 5.40625
23.836 16.204 5.4050002
22 16.799999 5.40625
22.628 16.832001 5.4000001
23.216 16.799999 5.4112501
23.812 16.804001 5.4012499
22 17.408001 5.4099998
22.608 17.412001 5.4037499
23.212 17.403999 5.4012499
23.816 17.436001 5.4037499
22.024 18.016001 5.4037499
22.604 18.02 5.40625
23.219999 18.024 5.4087501
23.804001 18.02 5.40625
22.011999 18.604 5.4099998
22.608 18.615999 5.4112501
23.212 18.628 5.4025002
23.812 18.604 5.4087501
22.028 19.216 5.4000001
22.6 19.200001 5.4112501
23.212 19.224001 5.40625
23.827999 19.236 5.4012499
22.016001 19.82 5.4112501
22.604 19.832001 5.4050002
23.236 19.804001 5.4074998
23.827999 19.82 5.4025002
22.032 20.4 5.4112501
22.608 20.412001 5.4025002
23.204 20.408001 5.4112501
23.804001 20.412001 5.4112501
22.011999 21.024 5.4099998
22.6 21.02 5.4087501
23.204 21.035999 5.4050002
23.808001 21.011999 5.4050002
22.028 21.615999 5.40625
22.620001 21.612 5.4025002
23.236 21.604 5.4025002
23.804001 21.615999 5.4074998
22.011999 22.219999 5.4099998
22.608 22.236 5.4037499
23.216 22.216 5.4000001
23.816 22.216 5.4087501
22.011999 22.832001 5.4087501
22.632 22.799999 5.4025002
23.208 22.836 5.4074998
23.799999 22.823999 5.4112501
22.007999 23.424 5.4025002
22.628 23.427999 5.4074998
23.212 23.408001 5.4050002
23.812 23.42 5.40625
22.035999 24.004 5.4112501
22.636 24.02 5.4037499
23.232 24 5.4012499
23.82 24.032 5.4050002
22.035999 24.612 5.4037499
22.620001 24.612 5.4000001
23.224001 24.628 5.4099998
23.836 24.615999 5.40625
22.02 25.236 5.4087501
22.604 25.219999 5.4050002
23.224001 25.216 5.4087501
23.82 25.219999 5.4050002
22.004 25.812 5.40625
22.615999 25.804001 5.4037499
23.232 25.799999 5.4099998
23.808001 25.823999 5.4037499
22.016001 26.408001 5.4012499
22.615999 26.412001 5.4087501
23.204 26.436001 5.4112501
23.832001 26.408001 5.4050002
22.02 27.004 5.4000001
22.615999 27.024 5.40625
23.236 27.035999 5.4000001
23.816 27.016001 5.4012499
22.035999 27.608 5.4025002
22.632 27.624001 5.4000001
23.212 27.608 5.4050002
23.816 27.624001 5.4099998
22.016001 28.228001 5.4112501
22.612 28.232 5.4012499
23.236 28.219999 5.4025002
23.836 28.236 5.4012499
22.016001 28.799999 5.4025002
22.615999 28.816 5.4074998
23.232 28.823999 5.4012499
23.799999 28.823999 5.4087501
22.007999 29.436001 5.4025002
22.624001 29.424 5.4000001
23.216 29.4 5.4099998
23.82 29.412001 5.4099998
22.028 30.007999 5.4037499
22.604 30.011999 5.4050002
23.216 30.035999 5.40625
23.827999 30.02 5.4012499
22.011999 30.612 5.4112501
22.615999 30.620001 5.40625
23.216 30.628 5.4087501
23.823999 30.615999 5.4037499
22.024 31.200001 5.40625
22.624001 31.224001 5.4000001
23.224001 31.219999 5.4050002
23.804001 31.232 5.4087501
22.024 31.812 5.4074998
22.612 31.808001 5.4012499
23.224001 31.82 5.40625
23.823999 31.808001 5.4000001
22.011999 32.431999 5.4000001
22.6 32.424 5.4074998
23.219999 32.416 5.4074998
23.808001 32.411999 5.4050002
22.007999 33.035999 5.4012499
22.624001 33.004002 5.4025002
23.219999 33.035999 5.40625
23.804001 33.007999 5.4087501
22.02 33.599998 5.4050002
22.608 33.624001 5.4099998
23.216 33.608002 5.4074998
23.816 33.608002 5.4050002
22 34.200001 5.4112501
22.636 34.208 5.4025002
23.219999 34.220001 5.4012499
23.827999 34.212002 5.4050002
22.035999 34.835999 5.4037499
22.624001 34.807999 5.4087501
23.219999 34.827999 5.4099998
23.804001 34.804001 5.4074998
22 35.424 5.4099998
22.632 35.400002 5.4037499
23.212 35.411999 5.4037499
23.816 35.408001 5.4087501
22.024 36.028 5.4050002
22.636 36.023998 5.4000001
23.224001 36.02 5.4112501
23.836 36.012001 5.4037499
22.035999 36.632 5.4037499
22.636 36.608002 5.4050002
23.219999 36.608002 5.4000001
23.823999 36.608002 5.4037499
22.035999 37.228001 5.4074998
22.615999 37.203999 5.4099998
23.212 37.236 5.40625
23.832001 37.203999 5.4025002
22.032 37.827999 5.4112501
22.636 37.832001 5.4037499
23.208 37.835999 5.4037499
23.827999 37.832001 5.40625
22.007999 38.424 5.4112501
22.615999 38.408001 5.4050002
23.228001 38.411999 5.4012499
23.812 38.436001 5.40625
22.011999 39.007999 5.4050002
22.604 39 5.4087501
23.219999 39 5.4050002
23.816 39.035999 5.40625
22.035999 39.616001 5.4050002
22.620001 39.604 5.4037499
23.208 39.619999 5.4012499
23.816 39.599998 5.4037499
22.032 40.228001 5.4099998
22.604 40.212002 5.4087501
23.224001 40.231998 5.4112501
23.812 40.236 5.4025002
22 40.816002 5.4025002
22.628 40.804001 5.4050002
23.208 40.807999 5.4099998
23.823999 40.835999 5.4012499
22.004 41.416 5.4087501
22.608 41.431999 5.4112501
23.228001 41.424 5.4074998
23.827999 41.428001 5.4012499
22.016001 42.023998 5.4025002
22.624001 42.035999 5.4012499
23.232 42.035999 5.4099998
23.799999 42.023998 5.4012499
22.024 42.599998 5.40625
22.615999 42.627998 5.40625
23.232 42.599998 5.4112501
23.82 42.619999 5.4087501
22.016001 43.216 5.40625
22.608 43.208 5.4050002
23.224001 43.231998 5.4000001
23.832001 43.216 5.4112501
22.004 43.816002 5.4012499
22.636 43.82 5.4087501
23.208 43.812 5.4099998
23.832001 43.832001 5.4087501
22.011999 44.431999 5.4112501
22.615999 44.411999 5.4050002
23.212 44.436001 5.4012499
23.799999 44.411999 5.4037499
22.016001 45.035999 5.4037499
22.628 45.035999 5.4099998
23.232 45.004002 5.4025002
23.836 45.007999 5.4112501
22.035999 45.619999 5.4037499
22.636 45.619999 5.4037499
23.224001 45.599998 5.4012499
23.827999 45.616001 5.4074998
22.007999 46.236 5.40625
22.620001 46.236 5.4099998
23.232 46.220001 5.4000001
23.804001 46.208 5.4112501
22.004 46.804001 5.4025002
22.624001 46.807999 5.40625
23.219999 46.804001 5.4025002
23.799999 46.799999 5.4087501
22.02 47.431999 5.4087501
22.624001 47.424 5.4037499
23.216 47.400002 5.4025002
23.836 47.419998 5.4012499
22 48.02 5.4074998
22.6 48.032001 5.4012499
23.204 48 5.4050002
23.816 48.032001 5.4074998
22.035999 48.619999 5.4099998
22.604 48.624001 5.4000001
23.200001 48.604 5.4112501
23.827999 48.599998 5.40625
22 49.216 5.40625
22.608 49.223999 5.4025002
23.219999 49.223999 5.4087501
23.812 49.231998 5.40625
22.024 49.804001 5.4087501
22.6 49.82 5.40625
23.228001 49.824001 5.4012499
23.827999 49.835999 5.4112501
22.028 0.035999998 6
22.624001 0.024 6.0025001
23.212 0.032000002 6.01125
23.799999 0.0080000004 6.0062499
22.007999 0.62800002 6.0037498
22.636 0.61199999 6.0037498
23.228001 0.63599998 6.0050001
23.816 0.60000002 6.0025001
22.007999 1.2359999 6.0100002
22.612 1.224 6.0100002
23.208 1.22 6.01125
23.816 1.216 6.0075002
22.035999 1.836 6.0075002
22.632 1.8 6.01125
23.219999 1.808 6.0100002
23.832001 1.816 6.0012498
22.011999 2.404 6.0012498
22.628 2.428 6.0012498
23.236 2.4360001 6.0025001
23.799999 2.4159999 6
22 3.0320001 6.0062499
22.636 3.02 6.0012498
23.228001 3.016 6.0012498
23.816 3.016 6.0037498
22.011999 3.6359999 6.0062499
22.604 3.6359999 6.0012498
23.219999 3.608 6.0050001
23.823999 3.6040001 6.0025001
22.035999 4.204 6.0037498
22.604 4.2119999 6
23.212 4.2119999 6.0100002
23.799999 4.2080002 6.0062499
22.007999 4.8000002 6.01125
22.620001 4.816 6.0062499
23.232 4.836 6.0050001
23.82 4.8080001 6.0062499
22.035999 5.428 6.00875
22.612 5.4120002 6.01125
23.228001 5.4159999 6.0025001
23.812 5.4200001 6.0062499
22.011999 6 6.0100002
22.612 6.0040002 6
23.236 6.0120001 6.0025001
23.799999 6.0320001 6.0075002
22.024 6.632 6.00875
22.608 6.612 6
23.232 6.6079998 6.00875
23.82 6.632 6.0037498
22.024 7.2199998 6.00875
22.632 7.1999998 6.0062499
23.219999 7.2119999 6.0062499
23.82 7.2280002 6.0075002
22.032 7.8319998 6.0012498
22.6 7.8319998 6.0012498
23.236 7.816 6.0012498
23.823999 7.836 6.00875
22.032 8.4280005 6.01125
22.632 8.4160004 6.01125
23.204 8.4119997 6.00875
23.799999 8.4119997 6.00875
22.028 9.0360003 6.0012498
22.620001 9.0159998 6
23.212 9.0159998 6.0100002
23.827999 9.0200005 6.0100002
22.032 9.6160002 6.0062499
22.6 9.6079998 6.0050001
23.228001 9.6040001 6.0037498
23.832001 9.6359997 6.00875
22 10.208 6.0025001
22.628 10.208 6.0075002
23.216 10.208 6.0062499
23.827999 10.236 6.0012498
22.035999 10.808 6.0075002
22.636 10.836 6.0037498
23.232 10.8 6.00875
23.82 10.808 6.0012498
22.035999 11.404 6.0025001
22.615999 11.404 6.0012498
23.212 11.404 6.0062499
23.823999 11.432 6.0100002
22.007999 12.02 6.0025001
22.636 12.016 6.0012498
23.208 12.024 6.0062499
23.832001 12.02 6.00875
22.004 12.62 6.00875
22.6 12.608 6.0012498
23.208 12.612 6.0025001
23.823999 12.628 6.0037498
22 13.204 6.0062499
22.620001 13.228 6.0062499
23.219999 13.204 6.0025001
23.827999 13.2 6.01125
22 13.808 6.0062499
22.624001 13.812 6.0025001
23.212 13.824 6
23.808001 13.836 6.0025001
22.011999 14.404 6.0075002
22.620001 14.436 6.0062499
23.200001 14.436 6.0075002
23.827999 14.42 6.0062499
22.02 15.008 6.0100002
22.628 15 6
23.232 15.008 6.0062499
23.82 15.032 6.0100002
22.032 15.612 6.0075002
22.6 15.62 6.0062499
23.216 15.632 6.0075002
23.799999 15.62 6.0100002
22.032 16.224001 6.00875
22.624001 16.212 6.0050001
23.216 16.232 6.00875
23.808001 16.232 6.01125
22.011999 16.823999 6.0012498
22.6 16.808001 6
23.232 16.808001 6.0037498
23.816 16.808001 6.0012498
22 17.424 6.01125
22.632 17.436001 6.0062499
23.232 17.427999 6.0037498
23.823999 17.412001 6.0075002
22.007999 18.035999 6.0062499
22.636 18.007999 6.0062499
23.232 18.028 6.0012498
23.799999 18.028 6.0037498
22.007999 18.628 6.0062499
22.628 18.612 6.01125
23.232 18.620001 6.0075002
23.799999 18.624001 6.0062499
22.028 19.216 6.0050001
22.6 19.208 6.01125
23.224001 19.219999 6.01125
23.812 19.224001 6.0037498
22.032 19.82 6.0025001
22.608 19.827999 6.0012498
23.219999 19.804001 6
23.812 19.832001 6.0037498
22.016001 20.436001 6.01125
22.6 20.436001 6.00875
23.228001 20.424 6.0012498
23.812 20.431999 6.0075002
22.011999 21.016001 6.0012498
22.615999 21 6.00875
23.236 21.032 6.0050001
23.804001 21 6.0037498
22.016001 21.632 6.0050001
22.615999 21.612 6.0062499
23.228001 21.628 6.0075002
23.832001 21.6 6.00875
22.028 22.228001 6.0062499
22.636 22.204 6.0037498
23.228001 22.224001 6.00875
23.799999 22.208 6.00875
22.035999 22.804001 6.0100002
22.615999 22.816 6
23.236 22.832001 6
23.823999 22.816 6.0037498
22.011999 23.403999 6.0037498
22.636 23.408001 6.0037498
23.224001 23.436001 6
23.804001 23.4 6.0037498
22.016001 24.028 6.0012498
22.612 24.028 6.0037498
23.212 24.035999 6.0075002
23.804001 24.02 6
22.011999 24.615999 6
22.615999 24.6 6.0050001
23.236 24.620001 6.0100002
23.808001 24.615999 6
22.02 25.208 6.0012498
22.632 25.212 6.0025001
23.212 25.236 6.0012498
23.82 25.212 6.0012498
22 25.823999 6
22.628 25.836 6.0062499
23.236 25.816 6.01125
23.808001 25.832001 6.0025001
22.024 26.431999 6.00875
22.615999 26.408001 6.0050001
23.224001 26.431999 6.0075002
23.832001 26.431999 6
22.007999 27.004 6.0012498
22.612 27.032 6.0050001
23.216 27.004 6.0025001
23.816 27 6.0037498
22.004 27.636 6.0100002
22.612 27.612 6.0075002
23.228001 27.6 6.0075002
23.816 27.624001 6.01125
22 28.212 6.01125
22.628 28.212 6.00875
23.236 28.219999 6
23.799999 28.232 6.01125
22.028 28.82 6.0025001
22.604 28.804001 6.0025001
23.219999 28.812 6.0037498
23.812 28.823999 6.00875
22.035999 29.412001 6.01125
22.632 29.436001 6.0062499
23.228001 29.408001 6.0100002
23.832001 29.436001 6.0037498
22.02 30 6.0100002
22.620001 30.007999 6.01125
23.224001 30.035999 6.0050001
23.832001 30.004 6.00875
22.007999 30.624001 6
22.624001 30.636 6.0100002
23.219999 30.6 6.0037498
23.816 30.6 6.0062499
22.035999 31.236 6.00875
22.6 31.228001 6.0100002
23.212 31.208 6.0100002
23.816 31.200001 6
22.011999 31.823999 6.0025001
22.636 31.827999 6.0037498
23.232 31.836 6.0012498
23.804001 31.827999 6.0025001
22.035999 32.408001 6.0050001
22.620001 32.431999 6.0062499
23.208 32.431999 6.0050001
23.836 32.400002 6.0025001
22.035999 33.02 6.0075002
22.628 33.035999 6.0075002
23.236 33.015999 6.0062499
23.804001 33.02 6.0025001
22.016001 33.616001 6.0037498
22.620001 33.619999 6.0037498
23.236 33.624001 6.0062499
23.816 33.612 6.0050001
22.035999 34.220001 6.0050001
22.620001 34.223999 6.0050001
23.236 34.220001 6.01125
23.823999 34.216 6.0012498
22.016001 34.816002 6.00875
22.604 34.82 6.0037498
23.212 34.807999 6.01125
23.836 34.835999 6.0050001
22.007999 35.436001 6.0025001
22.636 35.411999 6.0075002
23.219999 35.408001 6.0012498
23.836 35.436001 6
22.02 36.035999 6.0062499
22.628 36.02 6.0025001
23.232 36.004002 6.0075002
23.827999 36.012001 6.0037498
22 36.632 6.0062499
22.636 36.627998 6.0062499
23.219999 36.604 6.0050001
23.832001 36.604 6.01125
22.016001 37.223999 6.0037498
22.628 37.231998 6.0025001
23.228001 37.212002 6.0012498
23.82 37.200001 6.0100002
22.028 37.799999 6.0025001
22.620001 37.832001 6.0062499
23.232 37.799999 6.0062499
23.823999 37.807999 6.0037498
22.011999 38.428001 6.0075002
22.628 38.428001 6.00875
23.232 38.411999 6.0075002
23.804001 38.403999 6.0050001
22.011999 39 6.01125
22.628 39.028 6.0025001
23.228001 39.023998 6.0050001
23.836 39.012001 6.0050001
22.016001 39.616001 6.0062499
22.6 39.599998 6.01125
23.219999 39.612 6.0100002
23.812 39.608002 6.0075002
22.011999 40.200001 6.0012498
22.636 40.212002 6.0050001
23.219999 40.231998 6.00875
23.823999 40.220001 6.0050001
22.032 40.812 6.0037498
22.612 40.816002 6.0075002
23.228001 40.804001 6
23.816 40.812 6.0025001
22.02 41.431999 6.00875
22.615999 41.403999 6.01125
23.208 41.424 6.0012498
23.812 41.419998 6.0075002
22 42.007999 6.0062499
22.628 42.035999 6.0025001
23.204 42.028 6.0062499
23.823999 42.007999 6.0025001
22.011999 42.608002 6.0037498
22.620001 42.632 6.0075002
23.200001 42.616001 6.0075002
23.827999 42.599998 6.01125
22.035999 43.208 6.0075002
22.6 43.228001 6.0012498
23.228001 43.228001 6.0075002
23.816 43.216 6.0062499
22.024 43.832001 6.0050001
22.615999 43.816002 6.00875
23.224001 43.835999 6.0012498
23.836 43.827999 6.01125
22.02 44.428001 6.0037498
22.604 44.416 6.0062499
23.200001 44.411999 6.00875
23.832001 44.424 6.00875
22 45.02 6.0050001
22.632 45.035999 6.0012498
23.212 45.02 6.01125
23.827999 45.004002 6.0062499
22.024 45.627998 6.00875
22.628 45.624001 6.0050001
23.228001 45.612 6.0037498
23.808001 45.624001 6.00875
22.032 46.236 6.0037498
22.628 46.228001 6.0012498
23.216 46.236 6.0075002
23.804001 46.228001 6.00875
22.007999 46.799999 6.0050001
22.604 46.799999 6.0075002
23.232 46.824001 6.0062499
23.82 46.816002 6.0025001
22.035999 47.411999 6.00875
22.608 47.428001 6.0050001
23.208 47.428001 6.0037498
23.827999 47.419998 6.0025001
22.032 48.004002 6.0025001
22.624001 48.007999 6.01125
23.219999 48.015999 6.0025001
23.804001 48.028 6.0025001
22.035999 48.624001 6
22.620001 48.604 6.0075002
23.228001 48.612 6.01125
23.816 48.627998 6.01125
22 49.203999 6.0075002
22.620001 49.231998 6.0012498
23.232 49.231998 6.0037498
23.799999 49.223999 6.00875
22.004 49.812 6.0025001
22.612 49.82 6.01125
23.228001 49.816002 6.00875
23.832001 49.835999 6.01125
22.016001 0.032000002 6.605
22.624001 0.02 6.6037502
23.228001 0.02 6.6062498
