# .PCD v0.7 - Point Cloud Data file format
VERSION 0.7
FIELDS x y z
SIZE 4 4 4
TYPE F F F
COUNT 1 1 1
WIDTH 1869
HEIGHT 1
VIEWPOINT 0 0 0 1 0 0 0
POINTS 1869
DATA ascii
6.0240002 49.032001 12.0075
6.6279998 49.004002 12.01
7.2199998 49 12.00375
7.8319998 49.02 12.01
8.4119997 49.032001 12.01
9.0159998 49.007999 12.00875
9.6040001 49.004002 12.00375
10.228 49.004002 12.005
10.804 49.02 12.0075
11.408 49.02 12.01125
12.036 49.004002 12.01
12.624 49 12.00125
13.224 49.02 12.00375
13.836 49.023998 12.00125
14.428 49.035999 12.00125
15.024 49.012001 12.00375
15.62 49.023998 12.005
16.200001 49.015999 12.0075
16.823999 49.02 12.00125
17.412001 49.028 12.01
18.016001 49.035999 12.01125
18.608 49.028 12.00125
19.219999 49.012001 12.01
19.836 49.007999 12.005
20.4 49.004002 12.00375
21.011999 49.035999 12.01
21.628 49.015999 12.00875
22.204 49.02 12.00125
22.836 49.004002 12.01
23.408001 49.023998 12.01
24 49.004002 12.00875
24.604 49.02 12.005
25.208 49.012001 12.01125
25.804001 49.007999 12.00375
26.427999 49.015999 12.005
27.011999 49.028 12.005
27.604 49.023998 12
28.200001 49 12.00625
28.804001 49.035999 12.01125
29.408001 49.015999 12.00875
30 49.015999 12.01
30.628 49.032001 12.0075
31.212 49.007999 12.01125
31.808001 49.02 12.00375
32.419998 49.012001 12.01125
33.004002 49.023998 12.01
33.619999 49.035999 12.00625
34.223999 49 12.00625
34.812 49.012001 12.0075
35.416 49.02 12.0025
36.007999 49.02 12.01125
36.608002 49.007999 12.00875
37.231998 49.028 12.01125
37.835999 49.004002 12.00625
38.408001 49.032001 12
39.012001 49 12.0075
39.608002 49.028 12.00875
0.035999998 49.619999 12.00875
0.62400001 49.636002 12.00125
1.216 49.619999 12.0075
1.8279999 49.627998 12.0025
2.424 49.599998 12.0075
3.02 49.599998 12.0075
3.6240001 49.599998 12.00875
4.2119999 49.608002 12.0075
4.8119998 49.632 12.01
5.4039998 49.599998 12.00625
6.0359998 49.604 12.00125
6.632 49.627998 12.0025
7.2360001 49.612 12.00875
7.8319998 49.599998 12.00875
8.408 49.632 12.01125
9 49.612 12.01125
9.6239996 49.608002 12.01125
10.224 49.619999 12.005
10.808 49.604 12.0025
11.4 49.608002 12.005
12.028 49.612 12.00625
12.632 49.608002 12.005
13.208 49.604 12.00875
13.808 49.604 12
14.436 49.612 12.01
15.032 49.616001 12.005
15.628 49.608002 12.0075
16.236 49.632 12.00375
16.812 49.608002 12.005
17.427999 49.608002 12.01125
18.004 49.599998 12.0025
18.632 49.599998 12.005
19.216 49.612 12.01
19.804001 49.619999 12.01125
20.403999 49.624001 12.00375
21.007999 49.616001 12.01125
21.632 49.612 12.00375
22.216 49.608002 12.0025
22.836 49.619999 12.005
23.424 49.616001 12.01125
24.02 49.619999 12.00125
24.628 49.619999 12.00125
25.216 49.636002 12.0075
25.808001 49.612 12.00375
26.403999 49.624001 12.00125
27.024 49.632 12.00625
27.628 49.624001 12.01125
28.204 49.608002 12.00375
28.812 49.608002 12.00125
29.436001 49.632 12.00625
30.032 49.619999 12.00375
30.636 49.608002 12.01
31.212 49.624001 12
31.804001 49.599998 12.00375
32.428001 49.608002 12.01125
33.032001 49.599998 12.01
33.624001 49.632 12.0075
34.228001 49.636002 12.01125
34.799999 49.616001 12.00375
35.403999 49.612 12.00375
36.028 49.608002 12.01
36.599998 49.612 12.0025
37.200001 49.632 12.00125
37.799999 49.608002 12.00125
38.411999 49.636002 12.00625
39.012001 49.636002 12.0075
39.612 49.619999 12.005
0.035999998 49.007999 12.60375
0.60000002 49.02 12.60875
1.212 49.023998 12.6
1.832 49.02 12.605
2.424 49.028 12.6
3.036 49.032001 12.6
3.608 49 12.6025
4.2119999 49.015999 12.60375
4.836 49.035999 12.60375
5.4200001 49.015999 12.61
6.0040002 49.02 12.60375
6.6160002 49.023998 12.61
7.2119999 49.004002 12.6075
7.8200002 49 12.6025
8.408 49.032001 12.61125
9.0080004 49.035999 12.61125
9.6079998 49.004002 12.6
10.228 49.028 12.6075
10.8 49.032001 12.60875
11.412 49.012001 12.60125
12.016 49.015999 12.6075
12.628 49 12.605
13.22 49.012001 12.61
13.804 49 12.6
14.42 49.007999 12.61
15.02 49.023998 12.6
15.624 49.035999 12.60375
16.224001 49.032001 12.6
16.808001 49.032001 12.61
17.436001 49.015999 12.60375
18.007999 49.032001 12.61125
18.604 49.02 12.61125
19.219999 49.007999 12.605
19.82 49.02 12.60625
20.42 49.004002 12.61125
21.024 49.032001 12.6075
21.624001 49.023998 12.60875
22.236 49.012001 12.60625
22.808001 49.028 12.60375
23.4 49.035999 12.60875
24.016001 49.004002 12.60625
24.620001 49.007999 12.6025
25.219999 49 12.6075
25.804001 49.02 12.6025
26.431999 49.004002 12.60625
27.032 49.035999 12.60625
27.615999 49.02 12.60125
28.204 49.023998 12.6075
28.823999 49.032001 12.6075
29.403999 49.035999 12.60625
30.004 49.02 12.61
30.632 49 12.60125
31.204 49.028 12.60375
31.827999 49.035999 12.61
32.403999 49.035999 12.60125
33.032001 49.028 12.6
33.619999 49.012001 12.60625
34.236 49.015999 12.605
34.82 49.007999 12.6025
35.403999 49.015999 12.60375
36.032001 49.02 12.61
36.627998 49.02 12.60125
37.231998 49.023998 12.61
37.812 49.023998 12.61125
38.403999 49.035999 12.61125
39.012001 49 12.61
39.619999 49.028 12.6025
0.012 49.624001 12.6075
0.62800002 49.616001 12.60125
1.2359999 49.627998 12.60875
1.8200001 49.624001 12.605
2.4119999 49.612 12.61125
3.016 49.612 12.6075
3.6199999 49.632 12.605
4.2160001 49.636002 12.60625
4.8200002 49.616001 12.60625
5.4159999 49.599998 12.60375
6.0240002 49.612 12.60125
6.6160002 49.608002 12.60625
7.2199998 49.604 12.60625
7.8080001 49.632 12.60125
8.4239998 49.608002 12.6075
9.0240002 49.632 12.60125
9.6160002 49.619999 12.61125
10.2 49.608002 12.6
10.82 49.627998 12.60625
11.412 49.604 12.60875
12.032 49.627998 12.6
12.636 49.616001 12.6025
13.228 49.636002 12.60625
13.808 49.616001 12.605
14.412 49.608002 12.61
15.004 49.599998 12.61
15.616 49.624001 12.605
16.212 49.624001 12.6075
16.82 49.616001 12.60625
17.408001 49.627998 12.60875
18.035999 49.619999 12.6075
18.604 49.616001 12.6
19.219999 49.604 12.6025
19.804001 49.619999 12.61
20.427999 49.632 12.6
21.028 49.604 12.60125
21.628 49.619999 12.61125
22.204 49.599998 12.6075
22.836 49.624001 12.6
23.42 49.632 12.61125
24.016001 49.599998 12.6075
24.608 49.604 12.6
25.212 49.627998 12.605
25.827999 49.599998 12.61125
26.42 49.636002 12.6
27.028 49.624001 12.60375
27.6 49.612 12.61125
28.200001 49.627998 12.60125
28.832001 49.632 12.61125
29.4 49.619999 12.6
30.035999 49.636002 12.6
30.620001 49.608002 12.60375
31.228001 49.627998 12.6
31.812 49.624001 12.6025
32.419998 49.604 12.60125
33.028 49.599998 12.61125
33.599998 49.612 12.60375
34.203999 49.612 12.6025
34.82 49.612 12.6
35.416 49.612 12.6075
36.023998 49.616001 12.60875
36.632 49.604 12.61125
37.208 49.632 12.6075
37.807999 49.616001 12.605
38.428001 49.604 12.60625
39.032001 49.632 12.61
39.632 49.599998 12.60125
0.012 49.007999 13.2075
0.62 49.035999 13.21125
1.228 49.012001 13.205
1.812 49.007999 13.21
2.404 49 13.20125
3.0079999 49.007999 13.20125
3.6040001 49.028 13.20625
4.2199998 49.015999 13.2075
4.8119998 49.007999 13.2075
5.4039998 49.007999 13.20875
6.0159998 49.02 13.20125
6.6079998 49.007999 13.2025
7.2119999 49 13.20625
7.8280001 49.02 13.21125
8.4280005 49.032001 13.2
9.0319996 49.004002 13.2025
9.6359997 49.007999 13.21125
10.228 49.035999 13.20625
10.812 49.007999 13.21
11.408 49.02 13.2025
12.004 49.004002 13.21
12.616 49.012001 13.2
13.224 49.023998 13.2025
13.812 49.02 13.21
14.412 49.007999 13.2075
15.012 49.007999 13.20875
15.628 49.007999 13.20125
16.236 49.035999 13.20375
16.816 49.015999 13.20875
17.416 49.032001 13.20375
18.028 49.035999 13.2075
18.620001 49.012001 13.2
19.228001 49.035999 13.21
19.799999 49.02 13.205
20.4 49.032001 13.21
21.024 49.012001 13.20125
21.624001 49 13.20625
22.236 49.035999 13.2075
22.808001 49.023998 13.2
23.4 49 13.20125
24.02 49.028 13.2
24.604 49.015999 13.2075
25.212 49.015999 13.20875
25.816 49.023998 13.2025
26.4 49.023998 13.2
27.032 49.015999 13.20625
27.604 49.007999 13.2075
28.224001 49.007999 13.20875
28.808001 49.023998 13.20375
29.42 49.032001 13.2075
30.024 49.02 13.20625
30.632 49.028 13.2025
31.224001 49.007999 13.2075
31.816 49.023998 13.205
32.424 49.023998 13.2025
33.035999 49.028 13.21
33.624001 49.032001 13.20125
34.208 49.028 13.20625
34.807999 49.004002 13.20125
35.419998 49.032001 13.2025
36.012001 49.023998 13.20875
36.636002 49.02 13.2075
37.203999 49.004002 13.20125
37.835999 49.028 13.21125
38.419998 49.023998 13.2075
39.028 49.02 13.20625
39.619999 49.004002 13.20375
0.032000002 49.624001 13.2025
0.61199999 49.632 13.205
1.228 49.619999 13.2025
1.804 49.636002 13.20125
2.4319999 49.599998 13.2075
3.0280001 49.612 13.21125
3.632 49.616001 13.20875
4.2280002 49.636002 13.20625
4.8200002 49.632 13.2
5.4000001 49.619999 13.20375
6.0240002 49.616001 13.20125
6.5999999 49.627998 13.21125
7.2160001 49.624001 13.20875
7.836 49.627998 13.21
8.3999996 49.632 13.21
9.0319996 49.619999 13.20375
9.6359997 49.619999 13.20875
10.232 49.616001 13.2075
10.812 49.608002 13.205
11.42 49.616001 13.21125
12.036 49.608002 13.20625
12.608 49.612 13.20375
13.216 49.627998 13.20125
13.804 49.632 13.21125
14.404 49.632 13.20875
15.004 49.632 13.205
15.616 49.632 13.21125
16.204 49.632 13.20625
16.836 49.608002 13.20875
17.42 49.627998 13.205
18.024 49.632 13.2075
18.608 49.604 13.21125
19.228001 49.619999 13.21125
19.832001 49.632 13.20875
20.436001 49.636002 13.21
21.024 49.608002 13.2075
21.6 49.624001 13.2075
22.204 49.636002 13.20625
22.836 49.632 13.20875
23.431999 49.619999 13.2075
24.007999 49.604 13.20875
24.636 49.619999 13.21
25.200001 49.608002 13.20625
25.836 49.612 13.20625
26.427999 49.608002 13.2075
27.02 49.636002 13.21
27.612 49.604 13.205
28.200001 49.619999 13.20625
28.827999 49.616001 13.20625
29.424 49.608002 13.2
30.007999 49.619999 13.20125
30.604 49.624001 13.20875
31.204 49.624001 13.20125
31.823999 49.624001 13.205
32.411999 49.612 13.21125
33.035999 49.599998 13.21
33.627998 49.612 13.20125
34.212002 49.619999 13.2075
34.832001 49.608002 13.2
35.411999 49.632 13.20625
36.012001 49.612 13.2
36.627998 49.616001 13.21
37.223999 49.624001 13.205
37.835999 49.616001 13.2025
38.424 49.632 13.20625
39.02 49.627998 13.20875
39.619999 49.627998 13.20375
0.024 49 13.81
0.62 49.035999 13.80375
1.22 49.015999 13.80125
1.808 49 13.8075
2.4159999 49.035999 13.80125
3.0079999 49.02 13.81125
3.6359999 49.023998 13.80375
4.204 49.007999 13.80125
4.836 49.028 13.80125
5.4239998 49.007999 13.81
6.0359998 49.035999 13.8
6.5999999 49.015999 13.80125
7.2119999 49.004002 13.8075
7.8239999 49.023998 13.81
8.4119997 49 13.80875
9.0159998 49.012001 13.805
9.6120005 49.007999 13.8
10.232 49.012001 13.80375
10.808 49.007999 13.8025
11.412 49.004002 13.80625
12.012 49.007999 13.8075
12.612 49.007999 13.8025
13.22 49.02 13.80625
13.812 49.007999 13.80125
14.404 49.02 13.8025
15 49.004002 13.80875
15.616 49.023998 13.80125
16.216 49.015999 13.8075
16.836 49.023998 13.80125
17.408001 49.004002 13.8025
18.035999 49.023998 13.805
18.620001 49 13.81125
19.236 49.028 13.805
19.816 49 13.81
20.431999 49.012001 13.80625
21.007999 49.012001 13.81
21.636 49.028 13.805
22.208 49.012001 13.80125
22.832001 49.02 13.81125
23.403999 49.035999 13.80375
24.02 49.032001 13.81125
24.608 49.02 13.81125
25.204 49.015999 13.81
25.827999 49 13.8
26.431999 49.032001 13.80375
27.011999 49 13.81
27.608 49.004002 13.80875
28.232 49.012001 13.80125
28.836 49.015999 13.81
29.403999 49.02 13.80875
30.016001 49.004002 13.80875
30.612 49.012001 13.8025
31.219999 49.015999 13.81
31.812 49.012001 13.81
32.416 49.004002 13.81125
33.028 49.02 13.81125
33.632 49.035999 13.80375
34.220001 49.028 13.8075
34.832001 49.035999 13.8
35.424 49 13.81
36.02 49.015999 13.81125
36.608002 49.035999 13.8025
37.223999 49.015999 13.81
37.816002 49.032001 13.80125
38.419998 49.015999 13.80625
39.015999 49.012001 13.8
39.619999 49.004002 13.80125
0.032000002 49.627998 13.81
0.62 49.619999 13.81125
1.228 49.608002 13.81125
1.8200001 49.636002 13.80625
2.4159999 49.608002 13.80625
3.0320001 49.632 13.80125
3.632 49.612 13.81125
4.2080002 49.632 13.80625
4.8280001 49.616001 13.81125
5.4359999 49.636002 13.8
6.0079999 49.632 13.81125
6.6079998 49.612 13.80625
7.2080002 49.608002 13.81125
7.8119998 49.632 13.81
8.4359999 49.616001 13.8
9.0240002 49.619999 13.80125
9.6280003 49.619999 13.8075
10.236 49.627998 13.805
10.816 49.624001 13.8
11.412 49.627998 13.81125
12.024 49.636002 13.80875
12.62 49.608002 13.8025
13.208 49.616001 13.80625
13.804 49.636002 13.80625
14.408 49.632 13.80125
15.016 49.624001 13.81
15.62 49.616001 13.805
16.204 49.619999 13.80375
16.827999 49.636002 13.8025
17.427999 49.619999 13.81125
18.035999 49.612 13.81125
18.624001 49.632 13.80375
19.204 49.612 13.81125
19.832001 49.616001 13.81
20.412001 49.632 13.81125
21.024 49.612 13.80625
21.620001 49.632 13.80125
22.236 49.608002 13.8075
22.808001 49.604 13.81
23.416 49.604 13.80375
24.024 49.599998 13.81
24.628 49.632 13.8075
25.200001 49.636002 13.81125
25.836 49.627998 13.8075
26.436001 49.608002 13.805
27.032 49.636002 13.80875
27.615999 49.624001 13.81
28.219999 49.619999 13.8025
28.808001 49.636002 13.80375
29.4 49.624001 13.805
30.02 49.608002 13.8075
30.612 49.604 13.80625
31.204 49.604 13.805
31.812 49.608002 13.805
32.403999 49.612 13.81
33.028 49.608002 13.81125
33.627998 49.624001 13.80625
34.220001 49.612 13.8
34.835999 49.627998 13.8025
35.416 49.636002 13.81
36.035999 49.624001 13.8025
36.627998 49.604 13.80375
37.208 49.612 13.8075
37.835999 49.632 13.8
38.419998 49.636002 13.80375
39.012001 49.632 13.80625
39.612 49.619999 13.80375
0 49.007999 14.41125
0.60399997 49.004002 14.4075
1.22 49.023998 14.41
1.812 49.028 14.405
2.428 49.015999 14.4075
3.0079999 49.028 14.40125
3.632 49.032001 14.41125
4.1999998 49.012001 14.4
4.8119998 49.023998 14.41
5.4039998 49.004002 14.4075
6.0240002 49.007999 14.41
6.6279998 49.02 14.4
7.224 49 14.4075
7.816 49.02 14.40375
8.3999996 49.015999 14.41125
9.0240002 49.023998 14.4075
9.6359997 49.023998 14.405
10.2 49.023998 14.41125
10.808 49.004002 14.41
11.412 49.007999 14.41125
12.036 49.004002 14.40375
12.628 49.032001 14.41
13.228 49.015999 14.4
13.82 49 14.40875
14.4 49.004002 14.40125
15 49.035999 14.41125
15.632 49.035999 14.40625
16.219999 49.035999 14.40125
16.816 49.015999 14.40375
17.408001 49.028 14.40875
18.007999 49.023998 14.41
18.628 49.012001 14.41125
19.232 49.012001 14.40625
19.799999 49.032001 14.4075
20.431999 49.035999 14.40875
21.004 49.035999 14.41
21.604 49.028 14.40875
22.224001 49.015999 14.41125
22.799999 49.035999 14.40625
23.412001 49.004002 14.4025
24.007999 49.02 14.4
24.612 49.012001 14.40375
25.208 49.012001 14.41
25.827999 49.012001 14.40875
26.42 49.004002 14.41
27.016001 49.02 14.41125
27.612 49.023998 14.41
28.208 49.015999 14.40375
28.812 49.015999 14.4025
29.431999 49.035999 14.40625
30 49.015999 14.40125
30.6 49.028 14.4075
31.224001 49.035999 14.41125
31.816 49.032001 14.405
32.411999 49.015999 14.4075
33.012001 49.032001 14.40375
33.608002 49.012001 14.41125
34.203999 49.023998 14.40625
34.816002 49.035999 14.4025
35.431999 49.032001 14.40125
36.012001 49 14.40625
36.624001 49.012001 14.405
37.208 49.035999 14.40375
37.812 49.02 14.405
38.431999 49.004002 14.4
39.023998 49.015999 14.4
39.636002 49.028 14.405
0 49.599998 14.4
0.62800002 49.624001 14.40125
1.2359999 49.616001 14.41125
1.812 49.636002 14.4
2.4000001 49.624001 14.40375
3.02 49.599998 14.405
3.5999999 49.624001 14.40125
4.2160001 49.624001 14.4025
4.816 49.608002 14.41125
5.428 49.612 14.41
6.0040002 49.619999 14.41
6.6040001 49.608002 14.405
7.2080002 49.616001 14.4
7.816 49.627998 14.41125
8.4239998 49.627998 14.40875
9.0039997 49.608002 14.41
9.6199999 49.619999 14.405
10.232 49.636002 14.4025
10.812 49.624001 14.405
11.408 49.612 14.41125
12 49.624001 14.4075
12.6 49.627998 14.4
13.224 49.604 14.405
13.824 49.627998 14.40125
14.428 49.612 14.40125
15.02 49.616001 14.40625
15.62 49.604 14.4
16.204 49.599998 14.4025
16.812 49.619999 14.41
17.427999 49.627998 14.40375
18.032 49.636002 14.41125
18.615999 49.604 14.41
19.216 49.627998 14.40125
19.804001 49.619999 14.41125
20.408001 49.608002 14.4025
21.011999 49.636002 14.41125
21.636 49.616001 14.4025
22.236 49.619999 14.405
22.812 49.632 14.41125
23.403999 49.627998 14.41
24.024 49.619999 14.40875
24.628 49.604 14.4
25.219999 49.632 14.40875
25.836 49.636002 14.4025
26.431999 49.612 14.40875
27.007999 49.636002 14.4075
27.612 49.632 14.40125
28.224001 49.636002 14.4075
28.799999 49.612 14.40625
29.4 49.624001 14.405
30 49.619999 14.4
30.6 49.608002 14.40375
31.200001 49.599998 14.40125
31.832001 49.636002 14.4025
32.408001 49.636002 14.4075
33.004002 49.612 14.40625
33.632 49.627998 14.40625
34.203999 49.619999 14.4075
34.835999 49.619999 14.40125
35.424 49.627998 14.4
36.004002 49.632 14.40625
36.604 49.632 14.41125
37.223999 49.599998 14.41125
37.832001 49.632 14.4
38.400002 49.612 14.40125
39.032001 49.616001 14.40625
39.619999 49.616001 14.405
0 49.02 15.01125
0.63599998 49.02 15.0075
1.2079999 49.004002 15.005
1.808 49.007999 15.005
2.4360001 49.02 15.005
3.036 49.007999 15.005
3.5999999 49.007999 15.00625
4.2119999 49.015999 15
4.816 49.012001 15.0075
5.4039998 49 15.00125
6.02 49.012001 15.01
6.6160002 49.007999 15.00375
7.204 49.015999 15.00875
7.8280001 49.035999 15.00125
8.4119997 49.032001 15.01125
9.0360003 49.035999 15.00125
9.6120005 49.007999 15.00375
10.2 49.02 15.01125
10.8 49.004002 15.005
11.428 49.012001 15.00625
12 49.032001 15.01
12.632 49.02 15
13.216 49.032001 15.0075
13.812 49.028 15.00875
14.416 49 15.01
15.012 49.035999 15.01125
15.624 49.015999 15.00125
16.204 49.02 15.01
16.804001 49.028 15
17.42 49.015999 15.00625
18 49.023998 15.00375
18.632 49.02 15
19.200001 49.035999 15
19.836 49.015999 15.00875
20.431999 49.032001 15.01125
21.024 49.015999 15.01
21.624001 49 15.00625
22.228001 49.007999 15
22.832001 49.02 15.01125
23.431999 49 15.0075
24.011999 49.012001 15.0025
24.632 49.012001 15.00875
25.204 49.023998 15.01
25.804001 49.02 15.0025
26.436001 49.02 15.00375
27.032 49.007999 15.00875
27.636 49 15.01125
28.216 49.035999 15.00375
28.823999 49.028 15.01
29.42 49.02 15.00125
30.004 49 15.0075
30.615999 49.035999 15.01125
31.212 49 15.00625
31.816 49.012001 15.0025
32.431999 49.007999 15.01
33.004002 49.012001 15.0025
33.599998 49.015999 15.0025
34.208 49.032001 15.00125
34.82 49.023998 15.01125
35.424 49.004002 15.0075
36.035999 49.02 15.00875
36.619999 49.004002 15.01
37.216 49.023998 15
37.807999 49 15.00375
38.416 49.004002 15.01
39.015999 49.015999 15.00375
39.624001 49.02 15.00875
0.032000002 49.636002 15.00875
0.60799998 49.616001 15.00625
1.212 49.608002 15.01
1.836 49.604 15.00375
2.4319999 49.624001 15.0075
3.0320001 49.604 15.00375
3.632 49.612 15.00625
4.2160001 49.636002 15.0075
4.816 49.616001 15.00125
5.4359999 49.599998 15.01
6.0320001 49.604 15.01125
6.6199999 49.619999 15.00375
7.1999998 49.632 15.01
7.8000002 49.627998 15.01125
8.4160004 49.632 15.0075
9.0080004 49.624001 15.01125
9.6199999 49.627998 15.005
10.212 49.612 15.00375
10.804 49.627998 15.01125
11.416 49.632 15.0025
12.016 49.624001 15.00625
12.612 49.612 15
13.236 49.619999 15.01
13.828 49.619999 15.00875
14.424 49.604 15.00625
15.016 49.616001 15.005
15.62 49.604 15.00125
16.236 49.616001 15.005
16.82 49.632 15.00375
17.416 49.608002 15.00375
18.024 49.627998 15.01125
18.604 49.608002 15.0025
19.212 49.604 15.01125
19.804001 49.632 15.005
20.436001 49.627998 15.0075
21.024 49.604 15.0025
21.6 49.627998 15.00375
22.212 49.632 15
22.836 49.612 15
23.408001 49.632 15.0025
24.02 49.624001 15.00125
24.624001 49.599998 15.005
25.200001 49.612 15.00625
25.836 49.619999 15.0075
26.416 49.624001 15.00375
27.007999 49.616001 15.0075
27.624001 49.627998 15.00625
28.236 49.599998 15.005
28.804001 49.599998 15.01125
29.403999 49.616001 15.00875
30.024 49.608002 15.0075
30.636 49.632 15.0075
31.212 49.604 15.00125
31.804001 49.599998 15.0075
32.436001 49.624001 15.005
33.015999 49.632 15.00125
33.608002 49.624001 15.01
34.231998 49.624001 15.01
34.816002 49.636002 15
35.411999 49.612 15.00625
36.012001 49.604 15.01125
36.604 49.599998 15.01125
37.236 49.624001 15
37.799999 49.636002 15.00125
38.436001 49.632 15.00875
39.012001 49.616001 15.01
39.624001 49.624001 15.005
0.016000001 49.023998 15.6025
0.61199999 49.007999 15.605
1.22 49.032001 15.60875
1.8 49.004002 15.6
2.404 49.015999 15.6
3.0039999 49.012001 15.6075
3.6040001 49.012001 15.60625
4.2080002 49.007999 15.60625
4.8080001 49.032001 15.61125
5.408 49.015999 15.61
6.0320001 49.035999 15.605
6.6040001 49.015999 15.60875
7.2280002 49.004002 15.60625
7.8239999 49.007999 15.61
8.4239998 49.02 15.6025
9.0240002 49.023998 15.60875
9.6199999 49.032001 15.6
10.208 49.007999 15.60625
10.832 49.015999 15.60375
11.436 49.032001 15.61125
12.028 49.028 15.6
12.608 49 15.6075
13.204 49.028 15.61
13.832 49.012001 15.6025
14.424 49.004002 15.60875
15 49.028 15.605
15.628 49.015999 15.605
16.228001 49.028 15.6075
16.816 49.02 15.60375
17.436001 49.023998 15.60125
18.035999 49.015999 15.6
18.604 49.032001 15.6
19.232 49.035999 15.61125
19.832001 49.035999 15.6025
20.4 49.02 15.60625
21.028 49.028 15.60625
21.612 49.015999 15.61125
22.228001 49.012001 15.6075
22.823999 49.032001 15.60375
23.403999 49.035999 15.6
24.007999 49.032001 15.605
24.612 49.007999 15.605
25.219999 49.007999 15.60625
25.82 49 15.605
26.436001 49 15.60125
27.02 49.035999 15.61
27.6 49.012001 15.6025
28.236 49.007999 15.60875
28.823999 49 15.60875
29.403999 49.004002 15.60875
30.004 49.023998 15.60875
30.620001 49.004002 15.61125
31.204 49.023998 15.60125
31.823999 49.004002 15.60125
32.400002 49.004002 15.60375
33.004002 49.032001 15.60375
33.636002 49.032001 15.61
34.212002 49.028 15.6025
34.812 49.02 15.60375
35.400002 49.028 15.6075
36.028 49.032001 15.6025
36.627998 49.023998 15.60375
37.231998 49.028 15.6
37.807999 49.023998 15.60375
38.419998 49.023998 15.6075
39.035999 49 15.605
39.616001 49.035999 15.6025
0.0080000004 49.619999 15.6025
0.62400001 49.632 15.61125
1.2359999 49.599998 15.61
1.824 49.599998 15.61125
2.4000001 49.627998 15.60875
3.016 49.619999 15.6075
3.6240001 49.636002 15.6025
4.204 49.619999 15.60125
4.8319998 49.616001 15.60125
5.4159999 49.632 15.6025
6.0359998 49.608002 15.60875
6.612 49.632 15.60875
7.2080002 49.599998 15.61
7.8119998 49.632 15.6
8.408 49.632 15.60875
9.0039997 49.616001 15.605
9.6280003 49.608002 15.605
10.2 49.616001 15.61125
10.812 49.616001 15.60625
11.416 49.632 15.60375
12.024 49.636002 15.60875
12.624 49.608002 15.60625
13.212 49.627998 15.60625
13.812 49.599998 15.60375
14.412 49.616001 15.605
15.008 49.619999 15.61
15.636 49.616001 15.60125
16.219999 49.624001 15.60875
16.823999 49.636002 15.60125
17.403999 49.612 15.60125
18.024 49.599998 15.60125
18.612 49.624001 15.60625
19.200001 49.604 15.6025
19.832001 49.627998 15.605
20.403999 49.608002 15.61
21.028 49.627998 15.60625
21.624001 49.624001 15.6
22.236 49.612 15.6075
22.823999 49.636002 15.6075
23.436001 49.608002 15.60125
24.007999 49.632 15.60125
24.620001 49.612 15.61125
25.204 49.619999 15.60375
25.82 49.612 15.6025
26.408001 49.627998 15.605
27.007999 49.616001 15.60125
27.632 49.599998 15.61125
28.200001 49.604 15.6025
28.832001 49.636002 15.60375
29.416 49.599998 15.60625
30.032 49.612 15.60625
30.636 49.599998 15.61
31.204 49.612 15.6075
31.823999 49.636002 15.61125
32.431999 49.604 15.6075
33.007999 49.619999 15.60125
33.624001 49.612 15.60375
34.228001 49.619999 15.60875
34.799999 49.616001 15.6075
35.411999 49.599998 15.60875
36.004002 49.632 15.6025
36.624001 49.599998 15.6025
37.228001 49.612 15.6075
37.812 49.636002 15.60875
38.408001 49.627998 15.6
39.004002 49.604 15.60625
39.608002 49.627998 15.60125
0.028000001 49.02 16.2075
0.616 49.028 16.202499
1.204 49.007999 16.206249
1.8 49.012001 16.203751
2.408 49.007999 16.206249
3.016 49.004002 16.209999
3.608 49.015999 16.20875
4.2360001 49.032001 16.2075
4.836 49.035999 16.209999
5.428 49.012001 16.20875
6.0320001 49.004002 16.205
6.6240001 49.028 16.20125
7.2360001 49.032001 16.2075
7.8239999 49 16.20125
8.4359999 49.007999 16.203751
9.0279999 49.035999 16.2075
9.6199999 49.012001 16.202499
10.22 49.012001 16.20125
10.804 49.015999 16.202499
11.436 49.012001 16.2075
12.036 49.004002 16.21125
12.612 49 16.2075
13.22 49.004002 16.20875
13.812 49.028 16.20875
14.416 49.032001 16.202499
15 49.02 16.203751
15.624 49.012001 16.2075
16.236 49 16.20125
16.808001 49.004002 16.209999
17.416 49.012001 16.20125
18.007999 49.007999 16.206249
18.604 49.02 16.20875
19.200001 49.007999 16.209999
19.836 49.02 16.20875
20.431999 49.007999 16.206249
21.007999 49.007999 16.203751
21.620001 49.032001 16.209999
22.216 49.035999 16.209999
22.827999 49.004002 16.21125
23.427999 49.023998 16.205
24.004 49 16.2075
24.624001 49.015999 16.205
25.219999 49.015999 16.209999
25.812 49.02 16.205
26.408001 49.012001 16.2075
27.028 49.023998 16.200001
27.608 49.012001 16.200001
28.200001 49.035999 16.200001
28.832001 49.028 16.20125
29.4 49.015999 16.21125
30.024 49.02 16.202499
30.620001 49.012001 16.2075
31.236 49.032001 16.202499
31.827999 49.012001 16.20875
32.411999 49.02 16.200001
33.004002 49.02 16.209999
33.604 49.028 16.205
34.216 49 16.203751
34.816002 49 16.200001
35.428001 49 16.206249
36.035999 49.028 16.202499
36.604 49.007999 16.2075
37.228001 49.012001 16.2075
37.835999 49.007999 16.202499
38.424 49.032001 16.20875
39.032001 49.004002 16.205
39.636002 49.012001 16.202499
0.012 49.636002 16.205
0.62400001 49.612 16.205
1.228 49.599998 16.20875
1.816 49.636002 16.205
2.4319999 49.608002 16.209999
3.016 49.636002 16.203751
3.612 49.632 16.20875
4.2199998 49.624001 16.206249
4.816 49.627998 16.20875
5.4359999 49.624001 16.202499
6.0040002 49.636002 16.20125
6.6279998 49.619999 16.205
7.204 49.616001 16.2075
7.8319998 49.599998 16.209999
8.4160004 49.636002 16.200001
9.0159998 49.619999 16.202499
9.6280003 49.632 16.200001
10.22 49.619999 16.21125
10.808 49.599998 16.2075
11.436 49.636002 16.202499
12.004 49.608002 16.203751
12.616 49.636002 16.209999
13.2 49.599998 16.206249
13.836 49.604 16.206249
14.428 49.619999 16.205
15.036 49.599998 16.200001
15.604 49.636002 16.200001
16.216 49.624001 16.2075
16.812 49.636002 16.2075
17.403999 49.599998 16.20875
18.011999 49.616001 16.21125
18.632 49.632 16.200001
19.224001 49.636002 16.202499
19.812 49.599998 16.203751
20.436001 49.627998 16.20125
21.011999 49.632 16.203751
21.620001 49.608002 16.205
22.224001 49.624001 16.20125
22.808001 49.604 16.202499
23.431999 49.616001 16.205
24.028 49.636002 16.209999
24.624001 49.627998 16.21125
25.232 49.619999 16.200001
25.808001 49.636002 16.200001
26.424 49.632 16.20875
27.035999 49.612 16.20875
27.615999 49.636002 16.21125
28.232 49.619999 16.20875
28.804001 49.627998 16.200001
29.42 49.627998 16.205
30 49.616001 16.206249
30.632 49.608002 16.202499
31.228001 49.608002 16.209999
31.827999 49.616001 16.21125
32.428001 49.608002 16.20875
33.023998 49.604 16.202499
33.624001 49.619999 16.20125
34.220001 49.624001 16.2075
34.82 49.627998 16.206249
35.428001 49.612 16.202499
36.007999 49.612 16.209999
36.636002 49.612 16.200001
37.208 49.612 16.202499
37.807999 49.608002 16.21125
38.403999 49.599998 16.20125
39 49.632 16.203751
39.608002 49.616001 16.200001
0.016000001 49.007999 16.809999
0.60799998 49.028 16.807501
1.232 49.015999 16.80125
1.808 49.032001 16.805
2.404 49 16.811251
3.0120001 49.007999 16.8025
3.632 49.023998 16.80625
4.2280002 49.028 16.80875
4.8319998 49.035999 16.80875
5.4120002 49.004002 16.805
6.0240002 49.028 16.807501
6.6160002 49 16.80625
7.2080002 49 16.80125
7.8119998 49.007999 16.8025
8.4359999 49.02 16.8025
9.0360003 49.035999 16.805
9.6120005 49.028 16.8025
10.2 49.023998 16.80125
10.828 49.023998 16.799999
11.428 49 16.80125
12.004 49.032001 16.80125
12.628 49.007999 16.80125
13.216 49.028 16.80125
13.82 49 16.80625
14.428 49 16.80125
15.036 49.004002 16.799999
15.62 49.015999 16.811251
16.228001 49.02 16.80625
16.832001 49.015999 16.803749
17.431999 49.012001 16.803749
18.007999 49.015999 16.803749
18.612 49.012001 16.809999
19.224001 49.028 16.80625
19.827999 49.012001 16.80625
20.416 49 16.80875
21.02 49.007999 16.809999
21.628 49.028 16.80625
22.224001 49.028 16.8025
22.812 49.02 16.809999
23.427999 49.023998 16.8025
24.007999 49 16.807501
24.624001 49.012001 16.799999
25.216 49.035999 16.811251
25.804001 49.032001 16.8025
26.431999 49.007999 16.80625
27.024 49 16.80875
27.624001 49.028 16.807501
28.204 49.023998 16.803749
28.82 49.035999 16.80125
29.416 49.032001 16.811251
30.024 49.004002 16.811251
30.615999 49.035999 16.8025
31.224001 49.02 16.803749
31.823999 49.032001 16.803749
32.431999 49.023998 16.80875
33.02 49.007999 16.811251
33.608002 49.035999 16.80875
34.203999 49.007999 16.803749
34.816002 49.032001 16.805
35.428001 49.007999 16.80625
36.023998 49 16.809999
36.619999 49.023998 16.80875
37.236 49.012001 16.805
37.816002 49.004002 16.8025
38.436001 49.004002 16.809999
39.028 49.028 16.803749
39.624001 49.004002 16.805
0.02 49.608002 16.809999
0.60000002 49.636002 16.807501
1.228 49.624001 16.799999
1.808 49.619999 16.8025
2.4000001 49.599998 16.811251
3.036 49.608002 16.805
3.6199999 49.624001 16.80625
4.2280002 49.624001 16.807501
4.8280001 49.619999 16.803749
5.408 49.612 16.80875
6.0240002 49.604 16.811251
6.6279998 49.604 16.799999
7.2119999 49.632 16.811251
7.8239999 49.608002 16.805
8.3999996 49.608002 16.807501
9.0360003 49.604 16.799999
9.6199999 49.624001 16.811251
10.2 49.619999 16.80875
10.828 49.619999 16.8025
11.408 49.627998 16.80875
12.004 49.624001 16.809999
12.612 49.619999 16.8025
13.212 49.632 16.8025
13.816 49.624001 16.80625
14.4 49.627998 16.811251
15.028 49.632 16.80125
15.636 49.616001 16.811251
16.232 49.616001 16.80875
16.82 49.612 16.805
17.436001 49.632 16.803749
18.035999 49.636002 16.80125
18.636 49.608002 16.807501
19.204 49.632 16.80875
19.823999 49.608002 16.803749
20.403999 49.612 16.8025
21.007999 49.608002 16.80125
21.612 49.612 16.80625
22.219999 49.608002 16.80125
22.816 49.636002 16.80875
23.431999 49.636002 16.80625
24.004 49.599998 16.807501
24.612 49.636002 16.80125
25.236 49.612 16.811251
25.823999 49.636002 16.803749
26.408001 49.608002 16.809999
27.016001 49.616001 16.799999
27.620001 49.599998 16.805
28.208 49.627998 16.809999
28.816 49.612 16.80875
29.412001 49.604 16.809999
30 49.616001 16.809999
30.624001 49.636002 16.809999
31.236 49.604 16.803749
31.799999 49.636002 16.8025
32.416 49.604 16.807501
33.007999 49.632 16.8025
33.619999 49.619999 16.805
34.203999 49.632 16.80125
34.804001 49.616001 16.805
35.400002 49.627998 16.80875
36.035999 49.627998 16.805
36.627998 49.619999 16.803749
37.228001 49.619999 16.805
37.799999 49.619999 16.805
38.416 49.636002 16.80875
39.007999 49.616001 16.80625
39.619999 49.604 16.80125
0.035999998 49.015999 17.401251
0.61199999 49.02 17.40625
1.2359999 49.02 17.405001
1.8279999 49.023998 17.401251
2.404 49.023998 17.407499
3.0239999 49.012001 17.403749
3.6040001 49.023998 17.411249
4.2280002 49.007999 17.4
4.8239999 49.02 17.407499
5.4159999 49.007999 17.408751
6.0279999 49.012001 17.403749
6.632 49.023998 17.41
7.2199998 49.023998 17.407499
7.836 49.02 17.4025
8.408 49.032001 17.41
9 49.015999 17.405001
9.6160002 49.028 17.4025
10.212 49.015999 17.407499
10.82 49.012001 17.403749
11.408 49.028 17.40625
12.004 49.015999 17.401251
12.62 49.015999 17.408751
13.22 49.035999 17.40625
13.812 49 17.4025
14.432 49.007999 17.4
15.024 49.007999 17.40625
15.608 49.023998 17.405001
16.224001 49.004002 17.401251
16.812 49.028 17.405001
17.431999 49.004002 17.403749
18.016001 49.015999 17.408751
18.620001 49.035999 17.403749
19.216 49.028 17.4025
19.808001 49 17.4025
20.416 49 17.405001
21.02 49.035999 17.41
21.608 49.004002 17.40625
22.224001 49 17.41
22.836 49.02 17.408751
23.412001 49.012001 17.41
24.024 49.035999 17.403749
24.620001 49.023998 17.405001
25.232 49.004002 17.403749
25.808001 49.02 17.407499
26.416 49.035999 17.407499
27 49.023998 17.40625
27.604 49 17.411249
28.232 49.035999 17.411249
28.823999 49.032001 17.405001
29.416 49.007999 17.411249
30.016001 49 17.411249
30.636 49.023998 17.40625
31.224001 49.015999 17.41
31.804001 49.035999 17.403749
32.428001 49.012001 17.40625
33.015999 49.023998 17.401251
33.604 49.028 17.4025
34.200001 49.028 17.401251
34.804001 49.012001 17.411249
35.428001 49.035999 17.403749
36.028 49.015999 17.405001
36.632 49.02 17.4
37.220001 49.012001 17.407499
37.816002 49.02 17.40625
38.436001 49.007999 17.401251
39.015999 49.032001 17.411249
39.632 49 17.41
0 49.608002 17.40625
0.61199999 49.616001 17.41
1.216 49.604 17.4
1.832 49.599998 17.405001
2.408 49.632 17.401251
3.016 49.624001 17.40625
3.5999999 49.599998 17.4
4.2319999 49.604 17.4025
4.836 49.632 17.403749
5.4000001 49.624001 17.403749
6.0320001 49.632 17.408751
6.6199999 49.612 17.401251
7.2119999 49.627998 17.40625
7.8200002 49.619999 17.408751
8.4040003 49.636002 17.41
9.0120001 49.612 17.405001
9.6000004 49.624001 17.407499
10.2 49.624001 17.408751
10.816 49.627998 17.408751
11.428 49.627998 17.403749
12.008 49.627998 17.403749
12.608 49.608002 17.407499
13.212 49.627998 17.405001
13.8 49.612 17.401251
14.432 49.616001 17.401251
15.032 49.627998 17.405001
15.608 49.627998 17.4025
16.232 49.636002 17.41
16.827999 49.616001 17.40625
17.42 49.612 17.405001
18.032 49.632 17.401251
18.615999 49.599998 17.403749
19.200001 49.619999 17.401251
19.816 49.632 17.405001
20.424 49.632 17.41
21.035999 49.624001 17.41
21.620001 49.632 17.408751
22.232 49.632 17.411249
22.832001 49.619999 17.40625
23.416 49.608002 17.41
24 49.604 17.41
24.608 49.627998 17.4
25.219999 49.627998 17.407499
25.832001 49.616001 17.405001
26.408001 49.599998 17.4025
27.011999 49.636002 17.4
27.612 49.616001 17.41
28.208 49.616001 17.407499
28.804001 49.612 17.403749
29.424 49.636002 17.407499
30.028 49.636002 17.411249
30.620001 49.612 17.407499
31.224001 49.636002 17.40625
31.816 49.627998 17.411249
32.400002 49.608002 17.401251
33.015999 49.627998 17.4
33.616001 49.608002 17.408751
34.216 49.616001 17.403749
34.807999 49.624001 17.407499
35.419998 49.616001 17.408751
36.012001 49.604 17.411249
36.608002 49.636002 17.4025
37.200001 49.627998 17.403749
37.824001 49.604 17.401251
38.419998 49.612 17.40625
39.035999 49.627998 17.4025
39.636002 49.612 17.407499
0.032000002 49.028 18
0.60799998 49.035999 18.01
1.2 49.023998 18.00375
1.8 49 18.004999
2.4360001 49.015999 18.00375
3.0039999 49.02 18
3.628 49.012001 18.00375
4.2319999 49 18.0075
4.8200002 49.035999 18.00625
5.4359999 49.004002 18
6.02 49.004002 18.008751
6.6199999 49.012001 18.01
7.2160001 49.023998 18.00625
7.836 49.023998 18.00625
8.4119997 49.028 18.001249
9.0360003 49 18.01
9.6040001 49.028 18.001249
10.22 49.028 18.004999
10.812 49.007999 18.00375
11.404 49.004002 18.004999
12.004 49.032001 18.0075
12.604 49.015999 18.001249
13.236 49 18.01125
13.816 49.035999 18.008751
14.404 49.015999 18.004999
15.012 49.012001 18.008751
15.612 49.02 18.0075
16.219999 49.007999 18.004999
16.836 49.028 18.01
17.416 49.032001 18.002501
18.004 49.007999 18
18.636 49.012001 18.0075
19.200001 49.007999 18.01
19.808001 49.035999 18.01125
20.436001 49.007999 18.004999
21.024 49.028 18.01125
21.620001 49.004002 18.0075
22.204 49.032001 18
22.82 49.028 18.01
23.424 49.012001 18.01
24.032 49.015999 18
24.632 49.012001 18.00375
25.228001 49.023998 18.01
25.82 49.032001 18.01125
26.42 49.035999 18.00375
27.004 49.02 18.001249
27.608 49 18.004999
28.204 49.015999 18.002501
28.812 49.004002 18.001249
29.403999 49.028 18.004999
30.007999 49.02 18.01125
30.608 49.023998 18.002501
31.232 49.012001 18.01
31.832001 49 18.01
32.428001 49.02 18.01
33.007999 49.032001 18.00375
33.612 49.012001 18.0075
34.236 49.023998 18.002501
34.804001 49.035999 18.00375
35.408001 49.012001 18.001249
36.035999 49.02 18.0075
36.632 49.028 18.004999
37.208 49.028 18.008751
37.812 49.02 18.01
38.403999 49.015999 18.00625
39.004002 49.028 18.0075
39.627998 49.007999 18.01125
0.012 49.608002 18.00625
0.62 49.619999 18.0075
1.2 49.599998 18.01125
1.804 49.636002 18.004999
2.4000001 49.636002 18.004999
3.016 49.612 18.00375
3.608 49.624001 18.01125
4.2080002 49.599998 18.00625
4.836 49.604 18.004999
5.4200001 49.632 18.01125
6.0240002 49.612 18.00375
6.612 49.599998 18.01
7.1999998 49.604 18
7.836 49.608002 18.01125
8.4239998 49.616001 18
9.0080004 49.636002 18.004999
9.6199999 49.612 18
10.224 49.619999 18.002501
10.808 49.616001 18.004999
11.432 49.608002 18.004999
12.036 49.632 18.01
12.608 49.608002 18.01
13.212 49.616001 18.001249
13.812 49.619999 18.0075
14.42 49.604 18
15.02 49.619999 18.01125
15.636 49.604 18.002501
16.208 49.627998 18.01125
16.816 49.604 18.0075
17.4 49.599998 18.01
18.02 49.636002 18.01
18.620001 49.616001 18
19.219999 49.627998 18.0075
19.827999 49.608002 18.002501
20.412001 49.627998 18.00625
21.011999 49.619999 18.001249
21.620001 49.624001 18.004999
22.236 49.632 18.001249
22.836 49.619999 18.00375
23.42 49.627998 18.00625
24.02 49.608002 18.0075
24.612 49.636002 18
25.224001 49.619999 18.01125
25.808001 49.616001 18.002501
26.424 49.627998 18.001249
27.016001 49.608002 18.0075
27.620001 49.636002 18.00375
28.236 49.636002 18.00375
28.808001 49.632 18.01
29.427999 49.619999 18.01
30.007999 49.608002 18
30.604 49.619999 18.002501
31.212 49.612 18.008751
31.812 49.632 18.001249
32.428001 49.616001 18
33.032001 49.632 18.004999
33.627998 49.619999 18.004999
34.200001 49.624001 18.00625
34.812 49.636002 18.00625
35.416 49.624001 18
36.007999 49.604 18.004999
36.616001 49.608002 18.001249
37.223999 49.627998 18.00625
37.82 49.599998 18.00375
38.431999 49.636002 18.01125
39.032001 49.632 18
39.619999 49.619999 18.008751
0.0040000002 49.028 18.605
0.62400001 49.007999 18.606251
1.204 49.023998 18.60125
1.804 49.032001 18.605
2.428 49.02 18.610001
3.0320001 49.004002 18.6075
3.612 49.035999 18.610001
4.2319999 49.028 18.610001
4.8000002 49.032001 18.610001
5.408 49.012001 18.606251
6.0359998 49.023998 18.602501
6.6199999 49.007999 18.605
7.1999998 49.012001 18.60375
7.816 49.023998 18.60125
8.4320002 49.012001 18.610001
9.0360003 49.004002 18.602501
9.6199999 49.02 18.60125
10.212 49.02 18.6
10.804 49.02 18.6
11.436 49.028 18.606251
12.016 49.035999 18.60125
12.632 49.015999 18.60375
13.212 49.028 18.6075
13.824 49.012001 18.602501
14.436 49.004002 18.606251
15 49.007999 18.608749
15.608 49.028 18.605
16.219999 49.004002 18.60125
16.82 49.015999 18.608749
17.424 49.023998 18.6075
18.004 49 18.608749
18.612 49.004002 18.605
19.224001 49.015999 18.60125
19.812 49.007999 18.605
20.427999 49.012001 18.608749
21.011999 49.012001 18.6
21.608 49.02 18.61125
22.232 49 18.602501
22.836 49.032001 18.608749
23.431999 49.015999 18.60375
24.028 49.028 18.606251
24.615999 49 18.6075
25.232 49.035999 18.602501
25.804001 49.015999 18.6075
26.427999 49.004002 18.6
27.028 49.023998 18.60375
27.636 49.032001 18.60125
28.232 49.023998 18.60125
28.804001 49.032001 18.61125
29.4 49.023998 18.606251
30.02 49.012001 18.60375
30.608 49 18.60375
31.204 49 18.602501
31.82 49.015999 18.610001
32.408001 49.004002 18.6
33.007999 49.032001 18.610001
33.627998 49.035999 18.61125
34.231998 49.032001 18.608749
34.799999 49.004002 18.606251
35.403999 49.012001 18.602501
36.028 49.032001 18.608749
36.599998 49.007999 18.608749
37.220001 49.012001 18.6
37.799999 49.035999 18.605
38.431999 49.012001 18.608749
39 49.02 18.610001
39.636002 49.015999 18.608749
0.032000002 49.612 18.608749
0.62 49.619999 18.610001
1.212 49.632 18.60125
1.8200001 49.619999 18.60125
2.4159999 49.627998 18.605
3.016 49.619999 18.61125
3.6159999 49.627998 18.6
4.2319999 49.627998 18.60375
4.8280001 49.632 18.6
5.4200001 49.636002 18.606251
6.0120001 49.636002 18.6
6.5999999 49.624001 18.606251
7.2360001 49.636002 18.60375
7.8080001 49.624001 18.60125
8.4239998 49.612 18.6
9.0080004 49.627998 18.608749
9.6040001 49.612 18.605
10.216 49.612 18.602501
10.828 49.599998 18.602501
11.4 49.624001 18.60125
12.02 49.636002 18.602501
12.62 49.636002 18.6
13.208 49.599998 18.6
13.828 49.619999 18.610001
14.432 49.604 18.60125
15.004 49.619999 18.6
15.632 49.632 18.60375
16.212 49.608002 18.6075
16.82 49.608002 18.608749
17.436001 49.608002 18.60375
18.007999 49.636002 18.605
18.615999 49.616001 18.60375
19.216 49.632 18.6075
19.823999 49.619999 18.60375
20.427999 49.624001 18.605
21 49.627998 18.60125
21.604 49.627998 18.61125
22.216 49.599998 18.602501
22.812 49.627998 18.605
23.4 49.624001 18.6075
24.02 49.632 18.606251
24.636 49.616001 18.60125
25.216 49.604 18.60125
25.808001 49.636002 18.6075
26.42 49.624001 18.605
27.004 49.636002 18.60125
27.608 49.599998 18.61125
28.208 49.624001 18.60125
28.823999 49.636002 18.60125
29.4 49.604 18.61125
30.032 49.632 18.610001
30.620001 49.636002 18.605
31.224001 49.616001 18.608749
31.836 49.632 18.608749
32.419998 49.616001 18.606251
33 49.619999 18.605
33.612 49.599998 18.6075
34.216 49.608002 18.60375
34.824001 49.632 18.605
35.436001 49.599998 18.610001
36.032001 49.632 18.6075
36.632 49.612 18.6075
37.212002 49.604 18.602501
37.807999 49.599998 18.6
38.436001 49.627998 18.605
39.028 49.636002 18.602501
39.604 49.619999 18.602501
0.032000002 49.035999 19.2075
0.61199999 49.028 19.2075
1.228 49.023998 19.2075
1.8279999 49.02 19.2075
2.4159999 49.012001 19.21125
3.0079999 49.032001 19.202499
3.6159999 49.004002 19.205
4.224 49.007999 19.203751
4.8119998 49.035999 19.203751
5.428 49.012001 19.200001
6.0359998 49.012001 19.21125
6.6279998 49.023998 19.21125
7.2119999 49.02 19.206249
7.8039999 49.012001 19.202499
8.4280005 49.035999 19.209999
9.0319996 49.004002 19.2075
9.6000004 49.028 19.20875
10.224 49.012001 19.202499
10.836 49.032001 19.20125
11.416 49.02 19.205
12.016 49.023998 19.21125
12.624 49.012001 19.206249
13.22 49.032001 19.203751
13.808 49.035999 19.2075
14.42 49.032001 19.206249
15.02 49.023998 19.209999
15.604 49.023998 19.206249
16.204 49.007999 19.200001
16.812 49.015999 19.20125
17.424 49.032001 19.2075
18.011999 49.012001 19.206249
18.608 49.035999 19.209999
19.200001 49.015999 19.21125
19.812 49.032001 19.200001
20.403999 49.012001 19.21125
21.032 49 19.206249
21.624001 49.007999 19.205
22.212 49.02 19.2075
22.82 49.032001 19.200001
23.424 49.015999 19.20125
24.02 49.035999 19.205
24.6 49.007999 19.203751
25.200001 49.007999 19.21125
25.836 49.028 19.20875
26.408001 49.032001 19.203751
27.004 49.023998 19.203751
27.624001 49.015999 19.20875
28.200001 49.035999 19.202499
28.836 49.015999 19.202499
29.403999 49.012001 19.20875
30.007999 49.032001 19.209999
30.624001 49 19.200001
31.204 49 19.205
31.808001 49.007999 19.203751
32.408001 49.015999 19.20125
33.028 49.02 19.21125
33.599998 49.012001 19.203751
34.200001 49.015999 19.202499
34.807999 49.02 19.21125
35.419998 49.023998 19.202499
36.015999 49.004002 19.202499
36.608002 49.035999 19.202499
37.220001 49.004002 19.205
37.804001 49.02 19.2075
38.419998 49.028 19.202499
39.032001 49.015999 19.20875
39.632 49.028 19.203751
0.012 49.627998 19.21125
0.63200003 49.604 19.205
1.228 49.632 19.202499
1.804 49.608002 19.203751
2.4119999 49.627998 19.203751
3.0280001 49.616001 19.2075
3.6040001 49.619999 19.20125
4.1999998 49.599998 19.20125
4.8080001 49.604 19.20875
5.408 49.636002 19.205
6.02 49.616001 19.203751
6.6160002 49.608002 19.20875
7.1999998 49.604 19.206249
7.8080001 49.616001 19.200001
8.4239998 49.636002 19.21125
9.0360003 49.624001 19.203751
9.6280003 49.599998 19.200001
10.232 49.599998 19.203751
10.836 49.608002 19.205
11.428 49.624001 19.203751
12.012 49.604 19.21125
12.636 49.627998 19.202499
13.224 49.627998 19.206249
13.804 49.608002 19.202499
14.412 49.632 19.20125
15.008 49.636002 19.209999
15.62 49.624001 19.200001
16.224001 49.624001 19.200001
16.804001 49.632 19.205
17.42 49.627998 19.20125
18 49.599998 19.205
18.636 49.604 19.205
19.204 49.627998 19.203751
19.836 49.604 19.206249
20.403999 49.616001 19.206249
21.007999 49.627998 19.2075
21.608 49.616001 19.202499
22.216 49.608002 19.20125
22.816 49.612 19.21125
23.403999 49.632 19.209999
24.007999 49.632 19.200001
24.632 49.599998 19.202499
25.208 49.612 19.21125
25.832001 49.608002 19.200001
26.412001 49.619999 19.20875
27.004 49.599998 19.2075
27.628 49.616001 19.202499
28.208 49.636002 19.206249
28.812 49.619999 19.200001
29.416 49.624001 19.20125
30.007999 49.599998 19.20125
30.608 49.636002 19.20125
31.224001 49.612 19.206249
31.823999 49.604 19.20875
32.431999 49.627998 19.206249
33.028 49.632 19.206249
33.612 49.627998 19.21125
34.223999 49.636002 19.200001
34.812 49.616001 19.2075
35.411999 49.632 19.205
36.015999 49.608002 19.206249
36.624001 49.627998 19.2075
37.228001 49.612 19.21125
37.816002 49.636002 19.203751
38.416 49.599998 19.202499
39.035999 49.627998 19.202499
39.624001 49.612 19.21125
0.028000001 49.035999 19.811251
0.63200003 49.007999 19.803749
1.224 49.02 19.805
1.8 49.007999 19.807501
2.4200001 49 19.80625
3.0039999 49.035999 19.811251
3.612 49.015999 19.799999
4.224 49.032001 19.799999
4.8000002 49.035999 19.799999
5.408 49.02 19.803749
6.0040002 49.007999 19.805
6.5999999 49 19.807501
7.224 49.023998 19.803749
7.8000002 49.028 19.80875
8.4320002 49.015999 19.80875
9.0159998 49.023998 19.80875
9.6199999 49.035999 19.803749
10.22 49.028 19.803749
10.832 49.035999 19.8025
11.4 49.004002 19.80875
12.012 49.007999 19.811251
12.636 49.02 19.8025
13.22 49.012001 19.799999
13.8 49.012001 19.811251
14.4 49.012001 19.805
15.028 49.035999 19.799999
15.624 49.015999 19.80125
16.204 49 19.799999
16.816 49 19.811251
17.424 49 19.8025
18.011999 49.02 19.805
18.620001 49.015999 19.80125
19.236 49.004002 19.805
19.836 49.004002 19.811251
20.436001 49.012001 19.80625
21.011999 49.004002 19.805
21.620001 49.035999 19.811251
22.232 49.004002 19.80125
22.799999 49.02 19.803749
23.436001 49.015999 19.803749
24.004 49.035999 19.799999
24.628 49.015999 19.805
25.204 49.02 19.80625
25.82 49.02 19.809999
26.42 49.015999 19.8025
27 49.035999 19.80625
27.624001 49.023998 19.805
28.228001 49.015999 19.80875
28.799999 49.015999 19.80625
29.412001 49.02 19.811251
30.032 49.032001 19.799999
30.632 49.028 19.80875
31.208 49.032001 19.8025
31.836 49.015999 19.80875
32.431999 49.004002 19.803749
33.007999 49.012001 19.8025
33.627998 49.004002 19.809999
34.212002 49.035999 19.805
34.812 49.035999 19.809999
35.400002 49.012001 19.80625
36.035999 49.012001 19.803749
36.604 49.007999 19.80125
37.231998 49.023998 19.811251
37.804001 49.023998 19.80625
38.431999 49.023998 19.809999
39.015999 49.032001 19.80125
39.624001 49.028 19.803749
0.028000001 49.608002 19.805
0.61199999 49.619999 19.803749
1.216 49.619999 19.809999
1.836 49.624001 19.805
2.4119999 49.632 19.807501
3.0239999 49.624001 19.8025
3.628 49.636002 19.799999
4.2119999 49.632 19.807501
4.8039999 49.608002 19.807501
5.4200001 49.599998 19.803749
6 49.636002 19.809999
6.6240001 49.612 19.80625
7.2360001 49.627998 19.803749
7.8000002 49.632 19.80125
8.4239998 49.604 19.80125
9.0080004 49.636002 19.799999
9.6239996 49.627998 19.811251
10.228 49.599998 19.80875
10.82 49.612 19.80125
11.408 49.599998 19.805
12.028 49.599998 19.803749
12.628 49.624001 19.809999
13.212 49.632 19.80875
13.824 49.599998 19.807501
14.436 49.624001 19.811251
15.004 49.599998 19.811251
15.604 49.624001 19.807501
16.200001 49.619999 19.807501
16.799999 49.604 19.80125
17.403999 49.619999 19.8025
18.028 49.616001 19.805
18.604 49.608002 19.80125
19.236 49.619999 19.80125
19.836 49.612 19.803749
20.42 49.608002 19.80125
21.016001 49.612 19.80125
21.612 49.624001 19.811251
22.236 49.636002 19.80625
22.827999 49.636002 19.809999
23.436001 49.608002 19.80625
24.004 49.599998 19.811251
24.628 49.612 19.80125
25.200001 49.616001 19.807501
25.804001 49.612 19.80125
26.424 49.632 19.805
27.028 49.612 19.811251
27.6 49.632 19.809999
28.200001 49.632 19.80875
28.827999 49.627998 19.807501
29.427999 49.624001 19.799999
30.007999 49.636002 19.8025
30.604 49.627998 19.80625
31.212 49.627998 19.799999
31.804001 49.604 19.80625
32.411999 49.627998 19.805
33.035999 49.627998 19.811251
33.599998 49.627998 19.80875
34.231998 49.627998 19.80875
34.82 49.624001 19.80625
35.411999 49.612 19.803749
36.023998 49.619999 19.803749
36.632 49.627998 19.8025
37.223999 49.608002 19.811251
37.832001 49.619999 19.8025
38.411999 49.599998 19.799999
39.028 49.604 19.811251
39.632 49.608002 19.807501
0.032000002 49.007999 20.407499
0.62 49 20.4025
1.2079999 49.02 20.407499
