# .PCD v0.7 - Point Cloud Data file format
VERSION 0.7
FIELDS x y z
SIZE 4 4 4
TYPE F F F
COUNT 1 1 1
WIDTH 1872
HEIGHT 1
VIEWPOINT 0 0 0 1 0 0 0
POINTS 1872
DATA ascii
26.224001 34.799999 2.405
26.823999 34.832001 2.4012499
25.028 35.428001 2.405
25.632 35.400002 2.4000001
26.216 35.403999 2.4037499
26.827999 35.416 2.4000001
25.032 36.015999 2.4024999
25.604 36.015999 2.4100001
26.204 36.032001 2.4112501
26.804001 36.028 2.40625
25.004 36.612 2.40625
25.620001 36.599998 2.4037499
26.236 36.636002 2.4024999
26.812 36.636002 2.4024999
25.011999 37.212002 2.4037499
25.636 37.212002 2.4087501
26.236 37.203999 2.4012499
26.804001 37.208 2.4075
25.004 37.812 2.4075
25.612 37.827999 2.4037499
26.232 37.832001 2.4112501
26.82 37.824001 2.4012499
25 38.419998 2.4000001
25.612 38.431999 2.4000001
26.219999 38.416 2.40625
26.836 38.411999 2.4100001
25.032 39.007999 2.4012499
25.608 39.02 2.4037499
26.232 39.032001 2.4112501
26.823999 39.004002 2.4100001
25.007999 39.636002 2.4075
25.604 39.624001 2.4024999
26.208 39.627998 2.4112501
26.816 39.599998 2.4100001
25.024 40.220001 2.405
25.615999 40.223999 2.4087501
26.216 40.220001 2.4012499
26.823999 40.228001 2.4075
25.004 40.827999 2.4075
25.608 40.812 2.4100001
26.200001 40.827999 2.4112501
26.836 40.832001 2.4075
25.011999 41.408001 2.4037499
25.612 41.436001 2.40625
26.204 41.419998 2.4000001
26.827999 41.436001 2.4087501
25.016001 42.023998 2.405
25.620001 42.007999 2.4012499
26.212 42.012001 2.4000001
26.836 42.032001 2.40625
25.035999 42.632 2.4037499
25.636 42.627998 2.4037499
26.228001 42.612 2.4100001
26.808001 42.624001 2.4087501
25.028 43.236 2.405
25.636 43.223999 2.4075
26.232 43.208 2.4024999
26.816 43.228001 2.4075
25.02 43.807999 2.4112501
25.628 43.812 2.4112501
26.212 43.812 2.4100001
26.823999 43.816002 2.4087501
25.004 44.411999 2.4024999
25.636 44.419998 2.4100001
26.232 44.416 2.4112501
26.812 44.419998 2.40625
25.004 45.023998 2.4087501
25.620001 45 2.4075
26.204 45.032001 2.4000001
26.808001 45.02 2.405
25.007999 45.632 2.4112501
25.6 45.624001 2.4037499
26.236 45.632 2.4075
26.808001 45.636002 2.4037499
25.007999 46.231998 2.4112501
25.608 46.212002 2.405
26.236 46.216 2.4000001
26.836 46.236 2.4012499
25.02 46.799999 2.4112501
25.632 46.816002 2.4075
26.208 46.824001 2.40625
26.804001 46.832001 2.4037499
25.024 47.431999 2.4037499
25.615999 47.408001 2.4037499
26.228001 47.424 2.4012499
26.832001 47.431999 2.4075
25.016001 48.032001 2.4000001
25.620001 48.028 2.4012499
26.232 48.015999 2.4037499
26.836 48.015999 2.4087501
25.02 48.624001 2.405
25.608 48.636002 2.4024999
26.232 48.627998 2.4024999
26.804001 48.604 2.4075
25.016001 49.200001 2.4037499
25.628 49.231998 2.4037499
26.212 49.212002 2.4037499
26.82 49.200001 2.4024999
25.024 49.799999 2.4112501
25.604 49.835999 2.4037499
26.236 49.824001 2.4024999
26.82 49.804001 2.4012499
25.035999 0.035999998 3.01125
25.615999 0 3.0025001
26.200001 0.02 3.0037501
26.82 0.016000001 3.0037501
25.004 0.63200003 3.01
25.615999 0.62 3.01
26.228001 0.616 3.01
26.823999 0.62 3.01125
25.035999 1.224 3.01
25.612 1.204 3.01125
26.219999 1.204 3.01
26.823999 1.22 3.01
25.032 1.8279999 3.0062499
25.612 1.8200001 3
26.228001 1.824 3
26.82 1.8 3.00875
25.024 2.4360001 3.00125
25.624001 2.4200001 3.00875
26.224001 2.428 3.0037501
26.816 2.4000001 3.00875
25.02 3.0280001 3.01
25.612 3.0120001 3.0062499
26.204 3.016 3.0025001
26.836 3.0280001 3.01125
25.004 3.6240001 3.0062499
25.612 3.6159999 3.0074999
26.200001 3.5999999 3.00875
26.816 3.6240001 3.0037501
25.004 4.2160001 3.0025001
25.624001 4.1999998 3.0050001
26.212 4.2199998 3.0025001
26.812 4.2319999 3.00875
25.032 4.8080001 3.0037501
25.612 4.8119998 3.0037501
26.208 4.816 3.01125
26.799999 4.836 3.0062499
25.032 5.4039998 3.0062499
25.620001 5.4200001 3.0050001
26.200001 5.4320002 3.01
26.808001 5.4200001 3.00125
25.035999 6.0320001 3.0074999
25.612 6.0079999 3.00875
26.208 6.0079999 3.00125
26.823999 6.02 3.0050001
25.004 6.5999999 3
25.608 6.5999999 3.00125
26.232 6.632 3.0025001
26.812 6.612 3.01
25.035999 7.2160001 3.0074999
25.632 7.2319999 3.0037501
26.236 7.2360001 3.0050001
26.827999 7.2080002 3.01
25.024 7.8200002 3
25.628 7.8119998 3.01
26.212 7.816 3
26.82 7.8319998 3
25.024 8.4239998 3
25.604 8.408 3.0062499
26.204 8.4040003 3.00125
26.836 8.4040003 3
25.011999 9 3.01125
25.628 9 3.0050001
26.219999 9.0240002 3.01125
26.827999 9.0240002 3.0050001
25.02 9.6040001 3
25.628 9.6280003 3.01
26.228001 9.6199999 3.0062499
26.836 9.632 3.01125
25.02 10.236 3
25.624001 10.236 3.0025001
26.232 10.216 3.0050001
26.832001 10.204 3.0074999
25.007999 10.832 3.0037501
25.612 10.82 3.00125
26.228001 10.812 3.0025001
26.827999 10.8 3.01125
25.028 11.4 3.00875
25.615999 11.436 3.0062499
26.212 11.424 3.00875
26.816 11.412 3.0074999
25.032 12.004 3
25.615999 12.004 3.0037501
26.204 12.012 3.00125
26.823999 12.032 3.01
25.028 12.628 3.0037501
25.636 12.624 3.0050001
26.204 12.616 3.0074999
26.799999 12.632 3.00875
25.02 13.208 3.0050001
25.608 13.232 3.00875
26.200001 13.224 3.01
26.808001 13.2 3.0025001
25.02 13.812 3.00875
25.632 13.836 3.0074999
26.228001 13.824 3.0037501
26.799999 13.824 3.0025001
25.024 14.436 3.0074999
25.615999 14.436 3.0074999
26.208 14.424 3.01
26.823999 14.404 3.01
25.02 15.004 3.0050001
25.620001 15.024 3.00875
26.228001 15.004 3
26.82 15 3
25.004 15.636 3.01
25.624001 15.604 3.0074999
26.200001 15.6 3.0062499
26.823999 15.616 3.0074999
25.011999 16.224001 3.0062499
25.612 16.216 3.0074999
26.208 16.236 3.01125
26.832001 16.219999 3.0062499
25.028 16.816 3.01125
25.6 16.836 3.00125
26.208 16.808001 3
26.799999 16.804001 3.0037501
25.035999 17.403999 3.0037501
25.615999 17.4 3.01
26.212 17.42 3.0074999
26.832001 17.431999 3.00125
25.024 18.007999 3.0025001
25.628 18.011999 3.01125
26.212 18.007999 3.0050001
26.816 18.007999 3.0037501
25.02 18.615999 3.01
25.628 18.628 3.01125
26.200001 18.624001 3
26.816 18.608 3.0025001
25.016001 19.228001 3.00875
25.6 19.219999 3.0074999
26.212 19.212 3
26.832001 19.204 3.0037501
25.035999 19.823999 3.0074999
25.612 19.799999 3
26.236 19.827999 3.00875
26.836 19.816 3.0050001
25.032 20.424 3.0025001
25.6 20.408001 3.0074999
26.212 20.424 3.0050001
26.799999 20.436001 3.00125
25.032 21.016001 3.0062499
25.604 21.016001 3.0074999
26.216 21.016001 3.0025001
26.808001 21.035999 3.0050001
25.011999 21.632 3.00125
25.608 21.628 3.00875
26.232 21.628 3.0037501
26.799999 21.632 3.0074999
25.032 22.212 3.0050001
25.608 22.219999 3.0062499
26.216 22.216 3
26.836 22.219999 3.0074999
25.028 22.804001 3
25.636 22.823999 3
26.212 22.804001 3
26.823999 22.812 3
25.011999 23.403999 3.00875
25.632 23.412001 3.00875
26.216 23.403999 3
26.804001 23.424 3.01
25.024 24 3.0050001
25.632 24.004 3.00125
26.228001 24.032 3.0025001
26.827999 24.028 3
25.035999 24.608 3.00125
25.6 24.632 3.0074999
26.200001 24.612 3.01125
26.836 24.604 3.0025001
25.028 25.232 3.0074999
25.636 25.236 3.0050001
26.228001 25.228001 3.0050001
26.804001 25.232 3.0062499
25.007999 25.82 3.0062499
25.628 25.816 3.0025001
26.228001 25.823999 3.0074999
26.804001 25.823999 3.0074999
25.028 26.431999 3.00125
25.628 26.436001 3.0025001
26.204 26.424 3
26.836 26.431999 3.00125
25.011999 27.028 3.00125
25.636 27.004 3.00125
26.224001 27.02 3.01
26.804001 27.016001 3.0050001
25.02 27.615999 3
25.604 27.620001 3.01
26.236 27.615999 3.0074999
26.799999 27.612 3.0074999
25.02 28.228001 3.0050001
25.628 28.224001 3.0050001
26.236 28.208 3.0025001
26.808001 28.204 3.0062499
25.02 28.832001 3
25.620001 28.804001 3.0062499
26.236 28.827999 3.01125
26.799999 28.799999 3.0074999
25.032 29.4 3.0025001
25.628 29.408001 3.0074999
26.212 29.427999 3.0037501
26.836 29.42 3.00125
25.016001 30.024 3.0062499
25.632 30 3.00875
26.212 30.02 3.00875
26.812 30 3.01
25 30.636 3.00875
25.604 30.604 3.01
26.228001 30.608 3.01
26.808001 30.636 3
25.032 31.216 3.01
25.612 31.212 3.0062499
26.216 31.236 3.00125
26.799999 31.228001 3.00125
25.035999 31.799999 3.01
25.632 31.823999 3.01
26.232 31.823999 3.01125
26.823999 31.799999 3.0037501
25.016001 32.428001 3.0062499
25.615999 32.436001 3.0050001
26.216 32.436001 3
26.816 32.408001 3.0062499
25.004 33.035999 3.0062499
25.608 33.004002 3.0050001
26.219999 33 3.00875
26.812 33 3.0037501
25.011999 33.632 3.00125
25.620001 33.624001 3.00125
26.232 33.608002 3.00125
26.82 33.624001 3.0025001
25.004 34.212002 3.0025001
25.604 34.228001 3.0074999
26.224001 34.236 3.0062499
26.812 34.212002 3.0074999
25 34.804001 3.01
25.628 34.816002 3
26.200001 34.799999 3.00125
26.812 34.82 3.00875
25.02 35.419998 3
25.624001 35.400002 3.0074999
26.200001 35.403999 3.01125
26.808001 35.416 3.01125
25.004 36 3
25.624001 36.023998 3.0062499
26.219999 36.023998 3.0074999
26.82 36.012001 3.0037501
25.024 36.619999 3.0037501
25.628 36.632 3
26.224001 36.619999 3.00875
26.823999 36.612 3.01125
25.02 37.216 3
25.624001 37.223999 3.0074999
26.228001 37.236 3.01
26.827999 37.223999 3.0050001
25.02 37.812 3.0025001
25.604 37.832001 3.00875
26.216 37.824001 3.0025001
26.836 37.82 3.0037501
25.004 38.408001 3.01
25.632 38.400002 3.0025001
26.228001 38.428001 3.01
26.836 38.416 3.0074999
25.02 39.004002 3.0074999
25.615999 39.004002 3.0050001
26.200001 39.023998 3.00875
26.812 39.035999 3.00875
25.007999 39.624001 3.0050001
25.620001 39.627998 3.00125
26.200001 39.636002 3.0062499
26.799999 39.636002 3.0074999
25.016001 40.236 3.0037501
25.608 40.231998 3.01125
26.236 40.223999 3.0037501
26.82 40.208 3.0074999
25.035999 40.816002 3.0050001
25.632 40.835999 3.0037501
26.219999 40.807999 3.01125
26.804001 40.827999 3.00875
25.02 41.436001 3.01
25.6 41.436001 3.00875
26.224001 41.416 3.0074999
26.808001 41.431999 3.00875
25.011999 42.028 3.0062499
25.624001 42.015999 3.00875
26.208 42.02 3.00125
26.832001 42.012001 3.00125
25.007999 42.604 3.0037501
25.612 42.616001 3.0025001
26.208 42.636002 3.0037501
26.799999 42.608002 3.0025001
25 43.231998 3.01
25.632 43.208 3.00875
26.219999 43.223999 3.0074999
26.799999 43.216 3.0037501
25.035999 43.835999 3.01
25.612 43.827999 3.0050001
26.224001 43.804001 3.00875
26.804001 43.82 3.00125
25.011999 44.436001 3.0037501
25.624001 44.408001 3.0062499
26.200001 44.408001 3.0062499
26.804001 44.400002 3
25.032 45.032001 3.0074999
25.624001 45 3.0025001
26.236 45 3.00125
26.832001 45.02 3.00125
25.016001 45.604 3.0025001
25.604 45.608002 3.01125
26.216 45.627998 3.01125
26.836 45.619999 3.00125
25.024 46.220001 3.0062499
25.608 46.223999 3.0062499
26.216 46.223999 3.0062499
26.799999 46.212002 3.0074999
25.016001 46.807999 3.01
25.632 46.807999 3.0037501
26.236 46.824001 3.0074999
26.812 46.835999 3.01
25.011999 47.424 3.00875
25.615999 47.419998 3.0025001
26.219999 47.408001 3.01125
26.799999 47.424 3.01
25.028 48 3.0050001
25.620001 48.007999 3.01125
26.204 48.023998 3.0025001
26.804001 48.023998 3.0074999
25.024 48.619999 3.0062499
25.615999 48.636002 3.0050001
26.208 48.616001 3
26.836 48.632 3.01
25.011999 49.220001 3.0025001
25.608 49.220001 3.01
26.200001 49.216 3
26.827999 49.236 3.0050001
25.024 49.807999 3.0025001
25.6 49.812 3.01125
26.228001 49.804001 3.0074999
26.808001 49.82 3.00875
25.032 0.035999998 3.6012499
25.604 0 3.6012499
26.236 0.012 3.6075001
26.804001 0.024 3.60375
25.004 0.63200003 3.6099999
25.612 0.62 3.6087501
26.236 0.60799998 3.6025
26.804001 0.60799998 3.6087501
25.007999 1.204 3.6112499
25.636 1.212 3.6075001
26.224001 1.216 3.6099999
26.799999 1.22 3.6099999
25.004 1.816 3.605
25.6 1.8279999 3.6025
26.212 1.8 3.5999999
26.812 1.8200001 3.6075001
25.011999 2.4159999 3.5999999
25.620001 2.428 3.605
26.208 2.4000001 3.6075001
26.812 2.4360001 3.6112499
25 3.0280001 3.60375
25.632 3.0280001 3.5999999
26.232 3.0039999 3.6075001
26.808001 3.0120001 3.60375
25.016001 3.6240001 3.60625
25.620001 3.5999999 3.6025
26.212 3.612 3.6075001
26.82 3.5999999 3.605
25.035999 4.2080002 3.605
25.620001 4.224 3.60625
26.228001 4.2319999 3.6025
26.808001 4.2319999 3.6025
25.011999 4.8239999 3.60625
25.636 4.836 3.6099999
26.219999 4.8200002 3.6075001
26.808001 4.8080001 3.6099999
25.02 5.428 3.60375
25.612 5.408 3.60375
26.236 5.408 3.6075001
26.82 5.4359999 3.605
25 6.0320001 3.6025
25.620001 6.0040002 3.6025
26.236 6.0240002 3.6099999
26.816 6.02 3.6112499
25.016001 6.6079998 3.60625
25.6 6.6199999 3.6087501
26.204 6.6079998 3.60625
26.816 6.6279998 3.6112499
25.032 7.2280002 3.6012499
25.624001 7.2080002 3.60375
26.208 7.2199998 3.6012499
26.823999 7.1999998 3.605
25.032 7.8039999 3.5999999
25.624001 7.8280001 3.6075001
26.224001 7.8039999 3.5999999
26.812 7.8119998 3.6087501
25.007999 8.4160004 3.6012499
25.628 8.4040003 3.6112499
26.236 8.4040003 3.6075001
26.808001 8.4280005 3.6099999
25.02 9.0039997 3.60625
25.636 9.0279999 3.6087501
26.212 9.0200005 3.6099999
26.816 9.0120001 3.60625
25.007999 9.6040001 3.6099999
25.608 9.6160002 3.6025
26.208 9.6280003 3.6099999
26.812 9.6239996 3.6112499
25.007999 10.22 3.5999999
25.632 10.232 3.6112499
26.236 10.22 3.5999999
26.816 10.216 3.6112499
25.007999 10.832 3.605
25.6 10.808 3.6099999
26.232 10.824 3.6012499
26.823999 10.832 3.6075001
25.032 11.4 3.60625
25.636 11.424 3.60375
26.232 11.432 3.6012499
26.804001 11.428 3.6012499
25.007999 12.032 3.6075001
25.620001 12.008 3.60375
26.216 12.024 3.6012499
26.804001 12.028 3.60625
25.035999 12.62 3.6012499
25.6 12.612 3.6012499
26.232 12.608 3.605
26.812 12.612 3.5999999
25.035999 13.204 3.6099999
25.6 13.216 3.6087501
26.204 13.228 3.60625
26.827999 13.208 3.6099999
25 13.824 3.605
25.612 13.828 3.60375
26.200001 13.832 3.5999999
26.804001 13.804 3.605
25.02 14.404 3.6099999
25.636 14.428 3.6012499
26.236 14.424 3.605
26.836 14.424 3.6112499
25.028 15.028 3.6075001
25.608 15.024 3.5999999
26.208 15.036 3.6075001
26.836 15.008 3.6075001
25.016001 15.62 3.605
25.628 15.624 3.6087501
26.212 15.612 3.6112499
26.804001 15.608 3.6075001
25.016001 16.212 3.6025
25.6 16.212 3.5999999
26.236 16.200001 3.6087501
26.827999 16.216 3.60625
25.035999 16.836 3.605
25.624001 16.799999 3.6112499
26.216 16.823999 3.6075001
26.832001 16.812 3.605
25.032 17.424 3.6099999
25.628 17.436001 3.5999999
26.219999 17.42 3.605
26.827999 17.424 3.6112499
25.035999 18.028 3.6012499
25.624001 18.028 3.60625
26.212 18.024 3.6075001
26.799999 18.016001 3.6075001
25.004 18.632 3.60625
25.628 18.636 3.6099999
26.204 18.628 3.60625
26.836 18.624001 3.6075001
25.007999 19.204 3.6025
25.632 19.200001 3.6099999
26.228001 19.236 3.60625
26.832001 19.228001 3.605
25.02 19.799999 3.6012499
25.615999 19.808001 3.60625
26.208 19.812 3.605
26.827999 19.799999 3.60375
25.024 20.416 3.6025
25.612 20.412001 3.6099999
26.236 20.427999 3.6112499
26.804001 20.42 3.6112499
25.004 21.007999 3.5999999
25.628 21.007999 3.6087501
26.204 21 3.6112499
26.816 21.016001 3.6025
25 21.632 3.60625
25.624001 21.624001 3.6099999
26.204 21.608 3.6025
26.812 21.628 3.6087501
25.004 22.224001 3.60625
25.608 22.200001 3.6025
26.212 22.204 3.6087501
26.812 22.200001 3.6112499
25 22.808001 3.6012499
25.636 22.832001 3.6087501
26.204 22.832001 3.6075001
26.836 22.816 3.6025
25.028 23.42 3.6075001
25.604 23.4 3.60375
26.232 23.403999 3.6012499
26.82 23.42 3.6012499
25.032 24.032 3.60375
25.620001 24.011999 3.60375
26.224001 24.02 3.6087501
26.832001 24.02 3.6075001
25.02 24.632 3.6075001
25.604 24.636 3.60375
26.219999 24.632 3.5999999
26.804001 24.636 3.6012499
25.024 25.200001 3.605
25.632 25.219999 3.5999999
26.204 25.212 3.5999999
26.823999 25.200001 3.605
25.007999 25.827999 3.6112499
25.636 25.827999 3.6075001
26.228001 25.808001 3.6087501
26.816 25.823999 3.6075001
25.028 26.403999 3.60625
25.636 26.42 3.6075001
26.200001 26.403999 3.6075001
26.82 26.403999 3.6025
25.028 27.02 3.6087501
25.628 27.004 3.5999999
26.212 27.011999 3.6087501
26.812 27.02 3.605
25.004 27.608 3.6099999
25.632 27.632 3.6075001
26.228001 27.628 3.5999999
26.816 27.628 3.60625
25 28.236 3.6099999
25.628 28.216 3.6025
26.204 28.212 3.6087501
26.799999 28.204 3.5999999
25 28.816 3.6075001
25.628 28.836 3.6012499
26.212 28.812 3.60625
26.816 28.804001 3.6075001
25 29.4 3.60375
25.608 29.424 3.6025
26.228001 29.427999 3.6025
26.832001 29.424 3.6099999
25 30.035999 3.6025
25.636 30.035999 3.60625
26.204 30 3.6012499
26.827999 30.035999 3.6012499
25 30.620001 3.605
25.624001 30.636 3.6087501
26.216 30.604 3.5999999
26.836 30.615999 3.6075001
25.007999 31.212 3.60625
25.624001 31.212 3.60375
26.216 31.219999 3.6025
26.832001 31.216 3.6025
25.011999 31.832001 3.605
25.620001 31.82 3.60375
26.224001 31.823999 3.6099999
26.808001 31.816 3.6112499
25.004 32.431999 3.60375
25.604 32.436001 3.6112499
26.200001 32.403999 3.605
26.82 32.436001 3.6099999
25.035999 33.015999 3.60375
25.604 33.007999 3.5999999
26.219999 33.032001 3.6099999
26.836 33.012001 3.60625
25.02 33.604 3.6012499
25.620001 33.612 3.6087501
26.228001 33.624001 3.6087501
26.799999 33.632 3.6087501
25.004 34.200001 3.5999999
25.620001 34.220001 3.5999999
26.212 34.216 3.6075001
26.836 34.231998 3.5999999
25.035999 34.82 3.6099999
25.636 34.827999 3.6012499
26.216 34.807999 3.6025
26.832001 34.835999 3.6087501
25.028 35.424 3.6075001
25.620001 35.431999 3.605
26.216 35.436001 3.605
26.816 35.419998 3.6012499
25.024 36 3.6099999
25.608 36.035999 3.6099999
26.219999 36 3.60375
26.812 36.035999 3.5999999
25.02 36.624001 3.605
25.636 36.616001 3.6075001
26.236 36.604 3.6025
26.82 36.632 3.6012499
25.004 37.208 3.5999999
25.628 37.236 3.6087501
26.232 37.220001 3.5999999
26.832001 37.200001 3.6112499
25.024 37.82 3.6025
25.6 37.832001 3.6012499
26.208 37.82 3.6112499
26.836 37.827999 3.60375
25.02 38.424 3.6087501
25.636 38.411999 3.60625
26.208 38.416 3.6099999
26.82 38.403999 3.6087501
25.007999 39.004002 3.605
25.608 39 3.605
26.216 39.023998 3.6012499
26.823999 39.032001 3.6025
25.035999 39.612 3.6087501
25.636 39.616001 3.6075001
26.216 39.604 3.6025
26.804001 39.599998 3.6087501
25.028 40.212002 3.6012499
25.628 40.231998 3.605
26.216 40.208 3.6099999
26.799999 40.228001 3.5999999
25.028 40.804001 3.6099999
25.632 40.835999 3.6087501
26.200001 40.799999 3.6025
26.799999 40.804001 3.6075001
25.024 41.431999 3.6087501
25.604 41.436001 3.6112499
26.232 41.431999 3.6025
26.808001 41.419998 3.6025
25.032 42.004002 3.60625
25.624001 42.007999 3.6025
26.232 42.004002 3.60625
26.827999 42.035999 3.6075001
25.024 42.608002 3.6075001
25.632 42.616001 3.5999999
26.224001 42.608002 3.6099999
26.812 42.612 3.6087501
25.016001 43.216 3.6099999
25.628 43.231998 3.60375
26.204 43.223999 3.6087501
26.823999 43.220001 3.6012499
25 43.812 3.6025
25.620001 43.799999 3.60375
26.204 43.824001 3.60625
26.799999 43.824001 3.6012499
25 44.408001 3.605
25.632 44.428001 3.6087501
26.228001 44.408001 3.60375
26.82 44.403999 3.6012499
25.004 45.007999 3.5999999
25.632 45.004002 3.60625
26.236 45.004002 3.5999999
26.804001 45.035999 3.6012499
25.024 45.608002 3.6112499
25.608 45.608002 3.6075001
26.219999 45.616001 3.6099999
26.836 45.616001 3.6075001
25.035999 46.216 3.5999999
25.608 46.203999 3.6012499
26.224001 46.208 3.60375
26.823999 46.208 3.605
25.011999 46.812 3.6099999
25.612 46.824001 3.6087501
26.216 46.812 3.6012499
26.823999 46.827999 3.605
25.007999 47.408001 3.5999999
25.608 47.408001 3.6087501
26.200001 47.411999 3.6012499
26.799999 47.419998 3.6025
25.011999 48.012001 3.6087501
25.628 48.035999 3.6012499
26.212 48.015999 3.60625
26.812 48.032001 3.6012499
25.007999 48.616001 3.6075001
25.615999 48.599998 3.60375
26.200001 48.608002 3.6075001
26.799999 48.619999 3.5999999
25.035999 49.220001 3.60375
25.6 49.231998 3.5999999
26.219999 49.203999 3.605
26.808001 49.200001 3.60625
25.02 49.824001 3.5999999
25.6 49.835999 3.5999999
26.216 49.807999 3.605
26.799999 49.832001 3.60625
25.024 0.032000002 4.2112498
25.615999 0 4.2049999
26.216 0 4.2024999
26.836 0 4.1999998
25.004 0.62800002 4.2012501
25.628 0.60399997 4.2024999
26.212 0.62800002 4.21
26.82 0.62800002 4.2112498
25.02 1.204 4.2012501
25.604 1.216 4.2112498
26.224001 1.2 4.2112498
26.823999 1.216 4.1999998
25.007999 1.8 4.1999998
25.615999 1.836 4.2024999
26.224001 1.808 4.1999998
26.832001 1.8 4.2012501
25.007999 2.4119999 4.1999998
25.608 2.4000001 4.21
26.204 2.428 4.2012501
26.82 2.4319999 4.2087498
25.024 3.0280001 4.2087498
25.624001 3.0120001 4.2037501
26.224001 3.02 4.2062502
26.832001 3.0079999 4.2049999
25.007999 3.632 4.2087498
25.615999 3.632 4.2112498
26.232 3.608 4.2024999
26.832001 3.6159999 4.2049999
25.032 4.2319999 4.2012501
25.6 4.2119999 4.2012501
26.236 4.204 4.21
26.836 4.2280002 4.2037501
25.007999 4.8200002 4.2112498
25.632 4.8200002 4.2037501
26.216 4.8319998 4.2037501
26.812 4.816 4.2049999
25.007999 5.408 4.2075
25.624001 5.4120002 4.2037501
26.208 5.4039998 4.2012501
26.812 5.4120002 4.2075
25.028 6.0120001 4.2087498
25.620001 6.0079999 4.2062502
26.236 6.0240002 4.2024999
26.799999 6.0240002 4.21
25.02 6.6040001 4.21
25.632 6.6240001 4.2024999
26.208 6.6040001 4.2087498
26.804001 6.6360002 4.1999998
25.016001 7.2080002 4.2012501
25.620001 7.2280002 4.2062502
26.212 7.2160001 4.21
26.799999 7.2080002 4.2024999
25.028 7.8119998 4.21
25.6 7.8200002 4.2062502
26.200001 7.8000002 4.21
26.832001 7.8000002 4.2075
25.007999 8.4200001 4.2087498
25.636 8.4239998 4.2112498
26.236 8.408 4.2012501
26.812 8.4359999 4.21
25.032 9.0080004 4.2062502
25.632 9.0080004 4.2087498
26.208 9 4.1999998
26.799999 9.0080004 4.2062502
25.028 9.6079998 4.2087498
25.628 9.6000004 4.2087498
26.216 9.6160002 4.2024999
26.812 9.6160002 4.1999998
25.007999 10.22 4.2024999
25.612 10.232 4.2012501
26.216 10.232 4.2037501
26.836 10.232 4.21
25.024 10.8 4.21
25.632 10.812 4.1999998
26.219999 10.808 4.2049999
26.808001 10.8 4.2075
25.004 11.416 4.1999998
25.624001 11.436 4.2049999
26.224001 11.408 4.2024999
26.804001 11.428 4.2024999
25.007999 12.004 4.2037501
25.632 12 4.2012501
26.232 12.024 4.2049999
26.823999 12.024 4.2112498
25.032 12.604 4.2012501
25.615999 12.612 4.2012501
26.200001 12.62 4.2087498
26.799999 12.612 4.2087498
25.028 13.236 4.2012501
25.636 13.208 4.21
26.212 13.22 4.1999998
26.823999 13.22 4.1999998
25 13.812 4.2112498
25.624001 13.804 4.2062502
26.219999 13.804 4.2087498
26.832001 13.82 4.2024999
25.007999 14.42 4.2112498
25.636 14.428 4.2024999
26.232 14.416 4.2049999
26.836 14.42 4.2075
25.032 15.036 4.2037501
25.632 15.028 4.1999998
26.200001 15.036 4.2062502
26.836 15.02 4.2075
25.028 15.608 4.2112498
25.624001 15.612 4.2075
26.232 15.62 4.2037501
26.799999 15.624 4.2012501
25.016001 16.219999 4.2062502
25.632 16.224001 4.2012501
26.228001 16.216 4.2024999
26.799999 16.216 4.2112498
25.004 16.82 4.2112498
25.624001 16.823999 4.2075
26.219999 16.812 4.2012501
26.823999 16.836 4.2049999
25.011999 17.4 4.2112498
25.624001 17.4 4.2062502
26.236 17.424 4.2024999
26.82 17.42 4.2112498
25.032 18.016001 4.2062502
25.608 18.016001 4.1999998
26.212 18.028 4.2087498
26.816 18.024 4.2037501
25.004 18.604 4.2087498
25.608 18.636 4.21
26.224001 18.608 4.21
26.827999 18.604 4.1999998
25.016001 19.200001 4.2087498
25.628 19.228001 4.2049999
26.232 19.228001 4.21
26.812 19.236 4.2049999
25.02 19.82 4.2024999
25.615999 19.836 4.21
26.232 19.808001 4.2012501
26.827999 19.823999 4.2024999
25.02 20.416 4.2062502
25.624001 20.403999 4.21
26.232 20.424 4.1999998
26.82 20.42 4.1999998
25.004 21.011999 4.2087498
25.604 21.032 4.2112498
26.224001 21.024 4.2049999
26.799999 21 4.2062502
25 21.6 4.21
25.612 21.628 4.2049999
26.219999 21.620001 4.2112498
26.808001 21.612 4.1999998
25 22.204 4.21
25.612 22.236 4.2037501
26.212 22.200001 4.21
26.808001 22.208 4.2112498
25.004 22.799999 4.2087498
25.628 22.808001 4.2112498
26.212 22.808001 4.1999998
26.804001 22.82 4.2112498
25.02 23.4 4.2075
25.615999 23.412001 4.2112498
26.228001 23.42 4.2012501
26.82 23.431999 4.2024999
25.004 24.004 4.2024999
25.604 24.024 4.2075
26.208 24.028 4.21
26.804001 24.02 4.1999998
25.004 24.6 4.2024999
25.612 24.604 4.2112498
26.208 24.624001 4.1999998
26.804001 24.612 4.2062502
25 25.208 4.2024999
25.612 25.236 4.2012501
26.219999 25.200001 4.2049999
26.799999 25.216 4.1999998
25.032 25.832001 4.1999998
25.628 25.799999 4.2087498
26.228001 25.812 4.2087498
26.799999 25.823999 4.21
25.035999 26.4 4.2075
25.604 26.403999 4.2012501
26.232 26.416 4.2037501
26.804001 26.436001 4.2037501
25.007999 27.028 4.2062502
25.632 27.028 4.2012501
26.204 27.02 4.1999998
26.804001 27.007999 4.2024999
25.032 27.608 4.2062502
25.620001 27.615999 4.2012501
26.219999 27.612 4.2037501
26.804001 27.628 4.2062502
25.011999 28.219999 4.2112498
25.632 28.232 4.21
26.204 28.208 4.2087498
26.827999 28.204 4.2049999
25.032 28.816 4.2024999
25.6 28.82 4.2075
26.208 28.82 4.21
26.836 28.808001 4.2024999
25 29.427999 4.21
25.624001 29.4 4.2087498
26.204 29.42 4.2049999
26.808001 29.416 4.2037501
25.007999 30.02 4.2062502
25.6 30.016001 4.21
26.224001 30.011999 4.2024999
26.832001 30.02 4.2087498
25.028 30.632 4.2049999
25.620001 30.628 4.2075
26.200001 30.6 4.2062502
26.799999 30.624001 4.21
25.028 31.236 4.2037501
25.604 31.204 4.2112498
26.216 31.212 4.2062502
26.808001 31.219999 4.2012501
25 31.808001 4.2075
25.612 31.808001 4.2024999
26.208 31.836 4.2024999
26.836 31.827999 4.2112498
25.02 32.428001 4.2012501
25.612 32.436001 4.2112498
26.204 32.424 4.21
26.823999 32.436001 4.2012501
25.024 33.023998 4.2062502
25.612 33.032001 4.2024999
26.216 33.032001 4.2049999
26.804001 33.012001 4.2087498
25.02 33.632 4.21
25.628 33.627998 4.2062502
26.232 33.616001 4.2049999
26.799999 33.636002 4.2037501
25.004 34.200001 4.2012501
25.6 34.228001 4.2012501
26.204 34.212002 4.2112498
26.832001 34.223999 4.2087498
25.004 34.807999 4.2087498
25.628 34.82 4.2037501
26.216 34.799999 4.2012501
26.82 34.835999 4.1999998
25 35.431999 4.2049999
25.620001 35.400002 4.2049999
26.200001 35.403999 4.2075
26.808001 35.411999 4.2037501
25.02 36.028 4.21
25.615999 36.02 4.2075
26.212 36.032001 4.2112498
26.808001 36.023998 4.2049999
25.02 36.608002 4.2087498
25.624001 36.627998 4.2075
26.232 36.599998 4.2049999
26.812 36.619999 4.2075
25.035999 37.228001 4.21
25.628 37.203999 4.2037501
26.212 37.231998 4.1999998
26.804001 37.208 4.2075
25.032 37.827999 4.2075
25.636 37.799999 4.2024999
26.219999 37.82 4.2087498
26.808001 37.816002 4.2049999
25.035999 38.408001 4.2075
25.620001 38.428001 4.2037501
26.208 38.431999 4.2012501
26.808001 38.424 4.2049999
25.028 39.035999 4.2037501
25.632 39.007999 4.2087498
26.224001 39.007999 4.2062502
26.808001 39.004002 4.2062502
25.028 39.627998 4.2024999
25.624001 39.604 4.21
26.208 39.608002 4.2037501
26.836 39.632 4.1999998
25.007999 40.208 4.2012501
25.612 40.223999 4.2112498
26.232 40.212002 4.1999998
26.804001 40.212002 4.2024999
25 40.835999 4.2062502
25.620001 40.816002 4.21
26.208 40.812 4.2087498
26.82 40.835999 4.2112498
25.02 41.403999 4.2012501
25.632 41.400002 4.2012501
26.204 41.411999 4.2062502
26.808001 41.431999 4.2012501
25.011999 42.023998 4.2087498
25.612 42.035999 4.1999998
26.219999 42 4.2024999
26.808001 42.028 4.2075
25.004 42.599998 4.2112498
25.6 42.627998 4.21
26.204 42.608002 4.2112498
26.82 42.604 4.1999998
25.024 43.208 4.2062502
25.608 43.223999 4.2037501
26.219999 43.236 4.2024999
26.808001 43.208 4.2012501
25.02 43.835999 4.2037501
25.628 43.807999 4.2012501
26.212 43.82 4.2037501
26.816 43.82 4.1999998
25.007999 44.428001 4.2049999
25.612 44.408001 4.2087498
26.219999 44.400002 4.2012501
26.799999 44.416 4.2087498
25.016001 45.007999 4.21
25.624001 45.015999 4.2024999
26.236 45.035999 4.2024999
26.812 45.032001 4.2049999
25.024 45.604 4.2012501
25.604 45.619999 4.2075
26.212 45.636002 4.2062502
26.827999 45.612 4.2112498
25.02 46.231998 4.2024999
25.624001 46.236 4.2075
26.224001 46.220001 4.21
26.816 46.212002 4.2062502
25.028 46.807999 4.2075
25.636 46.827999 4.2062502
26.219999 46.82 4.21
26.823999 46.824001 4.2075
25.016001 47.436001 4.2062502
25.608 47.428001 4.1999998
26.204 47.416 4.2112498
26.812 47.408001 4.1999998
25.007999 48.032001 4.2087498
25.608 48.012001 4.1999998
26.228001 48.007999 4.2024999
26.823999 48.012001 4.2024999
25.004 48.632 4.2087498
25.636 48.624001 4.2049999
26.228001 48.599998 4.2062502
26.812 48.608002 4.2049999
25.011999 49.223999 4.21
25.615999 49.203999 4.2012501
26.224001 49.212002 4.2012501
26.812 49.223999 4.2075
25.02 49.82 4.21
25.6 49.804001 4.2012501
26.208 49.816002 4.2012501
26.804001 49.824001 4.2087498
25.02 0.012 4.8000002
25.612 0.024 4.8049998
26.228001 0.0080000004 4.8000002
26.832001 0.032000002 4.8024998
25.004 0.62800002 4.8087502
25.608 0.60000002 4.8062501
26.236 0.63200003 4.80125
26.827999 0.63200003 4.8049998
25.004 1.2 4.8112502
25.608 1.204 4.8062501
26.200001 1.2359999 4.8099999
26.808001 1.2079999 4.8087502
25.024 1.804 4.8112502
25.628 1.836 4.8112502
26.204 1.8 4.8074999
26.799999 1.812 4.8112502
25.024 2.4159999 4.8087502
25.636 2.404 4.8087502
26.212 2.408 4.8087502
26.808001 2.428 4.8000002
25.028 3.0280001 4.80125
25.624001 3.036 4.8062501
26.212 3.0280001 4.8087502
26.816 3.0239999 4.8099999
25.02 3.6359999 4.8112502
25.608 3.5999999 4.8049998
26.212 3.6240001 4.8099999
26.808001 3.6199999 4.80125
25.035999 4.2319999 4.8074999
25.624001 4.2119999 4.80375
26.232 4.1999998 4.8024998
26.799999 4.2319999 4.80125
25.02 4.8039999 4.8000002
25.608 4.8280001 4.8087502
26.212 4.8119998 4.8074999
26.808001 4.8280001 4.8074999
25.032 5.4000001 4.8049998
25.624001 5.4159999 4.80125
26.228001 5.4120002 4.8024998
26.812 5.4359999 4.8062501
25.032 6.0359998 4.8062501
25.6 6.0359998 4.8049998
26.212 6.0279999 4.8087502
26.816 6.0040002 4.8087502
25.004 6.6160002 4.8024998
25.636 6.6240001 4.8112502
26.232 6.6160002 4.80125
26.808001 6.6079998 4.8062501
25.016001 7.2080002 4.8099999
25.624001 7.2280002 4.8112502
26.212 7.224 4.8099999
26.832001 7.224 4.8000002
25.016001 7.8000002 4.8087502
25.615999 7.816 4.8099999
26.204 7.8280001 4.8062501
26.812 7.8239999 4.80375
25.007999 8.4160004 4.8099999
25.620001 8.4359999 4.8024998
26.200001 8.4200001 4.8049998
26.799999 8.4119997 4.8024998
25.004 9.0240002 4.8000002
25.604 9.0159998 4.8074999
26.204 9.0039997 4.8074999
26.799999 9.0200005 4.8024998
25.004 9.6239996 4.8112502
25.624001 9.6359997 4.8099999
26.236 9.6120005 4.8049998
26.836 9.6000004 4.80375
25.016001 10.208 4.8099999
25.632 10.208 4.80125
26.208 10.212 4.8087502
26.808001 10.224 4.8049998
25.004 10.832 4.8062501
25.636 10.8 4.8000002
26.208 10.804 4.8099999
26.812 10.836 4.8112502
25.004 11.404 4.8049998
25.624001 11.408 4.8049998
26.204 11.424 4.8074999
26.799999 11.42 4.8000002
25.011999 12.036 4.8062501
25.604 12.016 4.80125
26.228001 12.02 4.80125
26.816 12.016 4.8024998
25.024 12.632 4.8062501
25.615999 12.608 4.8062501
26.219999 12.62 4.8099999
26.836 12.604 4.8000002
25.02 13.212 4.8087502
25.604 13.22 4.8049998
26.212 13.232 4.80375
26.832001 13.204 4.8112502
25.035999 13.8 4.8074999
25.604 13.816 4.80375
26.219999 13.8 4.80125
26.799999 13.824 4.8062501
25.028 14.404 4.80125
25.620001 14.408 4.8049998
26.224001 14.428 4.8112502
26.82 14.4 4.8049998
25.035999 15.012 4.8062501
25.615999 15.004 4.8099999
26.216 15.012 4.8112502
26.808001 15.024 4.8062501
25.02 15.612 4.8074999
25.628 15.612 4.8049998
26.216 15.612 4.8099999
26.82 15.632 4.8000002
25.007999 16.224001 4.8000002
25.604 16.204 4.8000002
26.232 16.208 4.8074999
26.82 16.228001 4.8112502
25.011999 16.812 4.8024998
25.615999 16.82 4.8000002
26.200001 16.804001 4.80375
26.832001 16.799999 4.8112502
25.007999 17.416 4.8024998
25.6 17.408001 4.8024998
26.212 17.416 4.80125
26.82 17.427999 4.8049998
25.02 18.02 4.8087502
25.604 18.007999 4.8074999
26.204 18.024 4.8112502
26.82 18.007999 4.8074999
25.032 18.608 4.8087502
25.612 18.6 4.8112502
26.208 18.620001 4.8074999
26.823999 18.628 4.8099999
25.035999 19.200001 4.8024998
25.6 19.219999 4.80125
26.216 19.212 4.8112502
26.812 19.224001 4.80125
25.035999 19.836 4.8087502
25.632 19.827999 4.8000002
26.228001 19.82 4.8049998
26.816 19.832001 4.8062501
25.024 20.412001 4.8000002
25.608 20.436001 4.8087502
26.200001 20.431999 4.8000002
26.816 20.4 4.8087502
25.02 21.028 4.8024998
25.615999 21 4.8112502
26.232 21.007999 4.8000002
26.827999 21 4.8087502
25.028 21.628 4.8024998
25.615999 21.615999 4.80375
26.236 21.608 4.8074999
26.804001 21.615999 4.8062501
25 22.224001 4.8074999
25.608 22.208 4.8099999
26.208 22.236 4.8062501
26.816 22.224001 4.8099999
25.02 22.816 4.8000002
25.624001 22.804001 4.8024998
26.212 22.804001 4.8024998
26.832001 22.82 4.8099999
25.011999 23.424 4.8000002
25.636 23.427999 4.8074999
26.224001 23.436001 4.8024998
26.816 23.416 4.8074999
25.011999 24.024 4.8062501
25.6 24 4.80125
26.232 24.024 4.8062501
26.799999 24.016001 4.8087502
25.02 24.628 4.8000002
25.628 24.628 4.8062501
26.228001 24.608 4.80125
26.836 24.612 4.8000002
25.02 25.200001 4.80125
25.636 25.224001 4.8062501
26.219999 25.236 4.80125
26.808001 25.200001 4.8024998
25.016001 25.799999 4.8000002
25.604 25.812 4.8049998
26.200001 25.832001 4.80375
26.799999 25.827999 4.80125
25.02 26.416 4.8062501
25.632 26.42 4.8112502
26.200001 26.4 4.8112502
26.808001 26.403999 4.8062501
25.028 27.024 4.8087502
25.604 27 4.8112502
26.212 27.016001 4.80125
26.82 27.024 4.8049998
25.035999 27.632 4.8049998
25.615999 27.636 4.80125
26.228001 27.624001 4.8087502
26.812 27.620001 4.8024998
25.007999 28.219999 4.8049998
25.604 28.236 4.8062501
26.232 28.228001 4.80375
26.82 28.232 4.8049998
25.024 28.812 4.8000002
25.632 28.832001 4.8099999
26.208 28.836 4.8087502
26.836 28.812 4.8099999
25 29.403999 4.8049998
25.6 29.416 4.80125
26.216 29.424 4.8112502
26.804001 29.436001 4.8099999
25.024 30.035999 4.8062501
25.608 30.028 4.8062501
26.232 30.011999 4.8000002
26.832001 30.004 4.8000002
25.035999 30.624001 4.80125
25.624001 30.620001 4.8062501
26.216 30.628 4.8099999
26.799999 30.636 4.8049998
25.604 31.219999 4.80375
26.236 31.212 4.8024998
26.827999 31.228001 4.8112502
26.219999 31.82 4.8049998
26.836 31.812 4.8112502
25.016001 32.436001 4.8087502
25.028 33.015999 4.80375
25.024 33.608002 4.80125
25.604 33.604 4.8074999
25.032 34.212002 4.8099999
25.6 34.228001 4.8024998
26.208 34.216 4.8099999
25.028 34.832001 4.80125
25.628 34.824001 4.8062501
26.212 34.812 4.8087502
25 35.431999 4.8087502
25.628 35.431999 4.8000002
26.208 35.431999 4.80375
26.799999 35.400002 4.8000002
25.016001 36.007999 4.8074999
25.612 36.035999 4.8024998
26.224001 36.028 4.8024998
26.827999 36.023998 4.80125
25.02 36.599998 4.8074999
25.615999 36.624001 4.8024998
26.219999 36.627998 4.8000002
26.808001 36.624001 4.8000002
25.02 37.231998 4.8099999
25.632 37.200001 4.8112502
26.204 37.228001 4.80125
26.827999 37.208 4.80125
25.004 37.832001 4.8000002
25.624001 37.832001 4.8074999
26.228001 37.82 4.8074999
26.812 37.835999 4.80375
25.028 38.424 4.8024998
25.628 38.436001 4.8099999
26.232 38.416 4.8112502
26.823999 38.416 4.80125
25.028 39.028 4.8099999
25.636 39.028 4.8000002
26.208 39 4.8112502
26.808001 39.023998 4.8112502
25 39.612 4.8049998
25.636 39.632 4.8062501
26.208 39.619999 4.8024998
26.823999 39.612 4.80375
25.024 40.212002 4.8112502
25.620001 40.203999 4.8062501
26.228001 40.236 4.80375
26.827999 40.200001 4.8000002
25.032 40.816002 4.8000002
25.636 40.824001 4.8112502
26.232 40.832001 4.8024998
26.816 40.827999 4.80375
25.004 41.403999 4.8099999
25.620001 41.436001 4.80375
26.232 41.424 4.8074999
26.827999 41.411999 4.8000002
25.02 42.007999 4.8112502
25.632 42 4.80125
26.200001 42.032001 4.8062501
26.799999 42.028 4.80375
25.035999 42.627998 4.80125
25.615999 42.612 4.80125
26.228001 42.616001 4.8024998
26.827999 42.599998 4.8024998
25.004 43.200001 4.8000002
25.636 43.200001 4.80375
26.204 43.220001 4.8074999
26.799999 43.220001 4.8074999
25.011999 43.82 4.8074999
25.632 43.827999 4.80375
26.212 43.835999 4.8024998
26.827999 43.82 4.8062501
25.032 44.408001 4.80125
25.608 44.403999 4.80375
26.224001 44.408001 4.8049998
26.823999 44.416 4.8074999
25.007999 45.02 4.80125
25.632 45.032001 4.8074999
26.224001 45.012001 4.80375
26.808001 45.015999 4.8000002
25.028 45.627998 4.8112502
25.604 45.616001 4.8049998
26.224001 45.616001 4.8099999
26.836 45.627998 4.8000002
25.011999 46.220001 4.8049998
25.636 46.208 4.8000002
26.219999 46.216 4.8099999
26.823999 46.216 4.8074999
25.016001 46.807999 4.8112502
25.628 46.824001 4.80375
26.228001 46.82 4.80375
26.836 46.824001 4.8112502
25.02 47.416 4.8049998
25.615999 47.411999 4.80375
26.224001 47.424 4.8099999
26.808001 47.428001 4.8024998
25.011999 48.007999 4.8099999
25.604 48.032001 4.8049998
26.236 48.015999 4.8074999
26.799999 48.004002 4.8049998
25.016001 48.604 4.8112502
25.636 48.608002 4.8062501
26.232 48.627998 4.80125
26.808001 48.612 4.8062501
25.028 49.236 4.80375
25.632 49.216 4.80125
26.200001 49.228001 4.80375
26.804001 49.200001 4.8049998
25.02 49.835999 4.8000002
25.615999 49.835999 4.8049998
26.232 49.82 4.8062501
26.832001 49.816002 4.8112502
25.02 0.012 5.4074998
25.628 0.028000001 5.4000001
26.216 0.02 5.4012499
26.836 0.02 5.40625
25 0.62 5.4050002
25.624001 0.63200003 5.4050002
26.208 0.62400001 5.40625
26.808001 0.60000002 5.40625
25.024 1.232 5.4025002
25.612 1.232 5.4087501
26.208 1.224 5.4025002
26.804001 1.22 5.4112501
25.004 1.836 5.4074998
25.615999 1.8 5.4012499
26.200001 1.812 5.4112501
26.816 1.836 5.4112501
25.004 2.4119999 5.40625
25.624001 2.428 5.40625
26.212 2.424 5.4074998
26.823999 2.404 5.4074998
25.011999 3.016 5.4025002
25.628 3.02 5.4087501
26.232 3.0320001 5.4099998
26.82 3.016 5.4112501
25.032 3.6159999 5.4025002
25.636 3.6040001 5.4037499
26.236 3.6159999 5.4099998
26.816 3.5999999 5.40625
25 4.2160001 5.4012499
25.632 4.2080002 5.4037499
26.216 4.2280002 5.4112501
26.836 4.2160001 5.4074998
25.032 4.8080001 5.4074998
25.628 4.836 5.4000001
26.232 4.8000002 5.4087501
26.808001 4.836 5.4000001
25.028 5.4320002 5.4050002
25.620001 5.4120002 5.4074998
26.208 5.4200001 5.4025002
26.823999 5.4120002 5.4050002
25.004 6.0359998 5.4037499
25.608 6.0320001 5.4087501
26.200001 6.0279999 5.4025002
26.823999 6.0240002 5.4037499
25.032 6.6240001 5.4037499
25.628 6.632 5.4037499
26.228001 6.6279998 5.4037499
26.812 6.6160002 5.4074998
25.007999 7.2319999 5.4037499
25.615999 7.2160001 5.4074998
26.204 7.2280002 5.4074998
26.823999 7.2360001 5.4074998
25.024 7.8039999 5.4037499
25.632 7.8280001 5.4112501
26.212 7.8319998 5.40625
26.836 7.8200002 5.40625
25.007999 8.4119997 5.4050002
25.628 8.4320002 5.4099998
26.216 8.3999996 5.4112501
26.836 8.4280005 5.40625
25.032 9 5.4037499
25.615999 9.0240002 5.4050002
26.208 9.0159998 5.4074998
26.823999 9.0159998 5.40625
25.028 9.632 5.4037499
25.620001 9.6280003 5.4112501
26.208 9.6040001 5.4050002
26.827999 9.632 5.4050002
25.028 10.216 5.40625
25.624001 10.216 5.4050002
26.208 10.208 5.4074998
26.827999 10.232 5.4050002
25.004 10.8 5.4112501
25.636 10.832 5.4037499
26.219999 10.824 5.4012499
26.799999 10.812 5.4000001
25.035999 11.42 5.4012499
25.620001 11.408 5.4025002
26.200001 11.408 5.4074998
26.827999 11.432 5.4025002
25.004 12.008 5.4074998
25.636 12.036 5.4050002
26.212 12.012 5.4087501
26.808001 12.008 5.4087501
25.024 12.636 5.4037499
25.636 12.6 5.4074998
26.200001 12.604 5.4050002
26.812 12.636 5.4074998
25.02 13.236 5.4099998
25.615999 13.232 5.4112501
26.224001 13.204 5.4012499
26.812 13.2 5.4037499
25.035999 13.812 5.4099998
25.632 13.832 5.4025002
26.224001 13.824 5.4025002
26.804001 13.82 5.4050002
25.032 14.428 5.4087501
25.615999 14.412 5.4074998
26.200001 14.432 5.4087501
26.804001 14.416 5.40625
25.007999 15.004 5.4099998
25.620001 15.024 5.4099998
26.232 15.02 5.4050002
26.823999 15.024 5.4025002
25.035999 15.608 5.4099998
25.612 15.612 5.40625
26.236 15.612 5.4037499
26.823999 15.628 5.4074998
25.02 16.200001 5.4074998
25.608 16.204 5.4012499
26.200001 16.219999 5.4050002
26.799999 16.200001 5.4000001
25.035999 16.804001 5.4087501
25.620001 16.836 5.4037499
26.228001 16.799999 5.4087501
26.827999 16.812 5.4012499
25.007999 17.408001 5.4050002
25.620001 17.403999 5.4025002
26.212 17.424 5.4025002
26.808001 17.4 5.40625
25.02 18.007999 5.4000001
25.636 18.011999 5.4025002
26.204 18.016001 5.4037499
26.799999 18.035999 5.4037499
25.024 18.624001 5.4037499
25.612 18.612 5.4112501
26.216 18.628 5.4037499
26.804001 18.620001 5.4050002
25.011999 19.232 5.4025002
25.628 19.208 5.4037499
26.216 19.228001 5.4087501
26.823999 19.232 5.4000001
25.032 19.836 5.4050002
25.615999 19.808001 5.40625
26.228001 19.832001 5.4012499
26.808001 19.812 5.4074998
25.004 20.431999 5.4050002
25.620001 20.436001 5.4112501
26.236 20.416 5.4112501
26.816 20.412001 5.4025002
25.028 21.035999 5.4012499
25.624001 21.02 5.4000001
26.228001 21.02 5.4012499
26.812 21.004 5.4037499
25.004 21.632 5.4037499
25.608 21.612 5.4087501
26.204 21.615999 5.40625
26.827999 21.636 5.4074998
25.032 22.204 5.4025002
25.636 22.219999 5.40625
26.212 22.216 5.4074998
26.82 22.200001 5.4012499
25.028 22.836 5.4099998
25.632 22.82 5.4025002
26.216 22.823999 5.4025002
26.827999 22.799999 5.40625
25.016001 23.412001 5.4000001
25.604 23.4 5.4012499
26.236 23.4 5.4050002
26.804001 23.4 5.4012499
25.032 24.011999 5.4087501
25.615999 24.032 5.4099998
26.228001 24.02 5.4112501
26.823999 24.024 5.4074998
25.032 24.6 5.4025002
25.6 24.628 5.40625
26.232 24.608 5.4099998
26.832001 24.620001 5.4012499
25.004 25.219999 5.4012499
25.624001 25.224001 5.4012499
26.236 25.219999 5.4087501
26.827999 25.236 5.40625
25.028 25.827999 5.4037499
25.624001 25.82 5.4112501
26.219999 25.82 5.4112501
26.836 25.827999 5.4074998
25.016001 26.42 5.4000001
25.620001 26.412001 5.4074998
26.232 26.427999 5.4037499
26.804001 26.42 5.4112501
25.011999 27.016001 5.4074998
25.608 27.011999 5.4074998
26.228001 27 5.40625
26.808001 27.035999 5.4025002
25.004 27.615999 5.4087501
25.608 27.612 5.4050002
26.204 27.6 5.4000001
26.804001 27.628 5.40625
25.035999 28.219999 5.4050002
25.608 28.224001 5.4112501
26.216 28.204 5.4074998
26.799999 28.212 5.4112501
25.032 28.812 5.4000001
25.620001 28.82 5.4112501
26.228001 28.836 5.40625
26.816 28.804001 5.4000001
25.604 29.424 5.4112501
26.232 29.427999 5.4050002
26.812 29.408001 5.4037499
26.200001 30.035999 5.40625
26.799999 30.024 5.4025002
26.836 30.608 5.40625
25 34.212002 5.4050002
25.024 34.835999 5.4012499
25.604 34.832001 5.4012499
25.004 35.431999 5.40625
25.632 35.411999 5.4074998
26.232 35.411999 5.4112501
25.028 36.015999 5.4099998
25.604 36 5.40625
26.200001 36.035999 5.40625
26.808001 36 5.40625
25.011999 36.616001 5.4074998
25.636 36.612 5.4025002
26.212 36.619999 5.4025002
26.799999 36.619999 5.40625
25.024 37.220001 5.4012499
25.632 37.236 5.4087501
26.212 37.231998 5.4012499
26.812 37.236 5.4025002
25.032 37.835999 5.4012499
25.612 37.812 5.4037499
26.232 37.832001 5.4087501
26.827999 37.799999 5.4037499
25.004 38.419998 5.4099998
25.624001 38.419998 5.40625
26.212 38.411999 5.4000001
26.823999 38.411999 5.4112501
25.016001 39.032001 5.4112501
25.628 39.004002 5.4099998
26.204 39 5.4112501
26.808001 39.02 5.4037499
25.032 39.624001 5.4012499
25.628 39.619999 5.4037499
26.200001 39.624001 5.4099998
26.799999 39.616001 5.4037499
25.02 40.231998 5.4112501
25.628 40.216 5.4025002
26.232 40.200001 5.4012499
26.827999 40.231998 5.4050002
25.02 40.835999 5.4050002
25.620001 40.816002 5.4000001
26.200001 40.816002 5.4099998
26.812 40.804001 5.4037499
25.028 41.408001 5.4112501
25.620001 41.416 5.4074998
26.204 41.400002 5.4050002
26.808001 41.428001 5.4000001
25.016001 42.032001 5.4012499
25.628 42.02 5.4012499
26.208 42.004002 5.4000001
26.832001 42.032001 5.4074998
25 42.599998 5.4000001
25.632 42.612 5.4025002
26.204 42.599998 5.4074998
26.812 42.632 5.4000001
25.035999 43.203999 5.4025002
25.620001 43.212002 5.4025002
26.219999 43.236 5.4000001
26.832001 43.228001 5.40625
25.035999 43.804001 5.4099998
25.6 43.835999 5.4099998
26.224001 43.807999 5.4099998
26.836 43.799999 5.4050002
25.011999 44.408001 5.4074998
25.636 44.419998 5.4050002
26.204 44.424 5.40625
26.823999 44.403999 5.4000001
25.032 45.032001 5.4000001
25.6 45.028 5.4087501
26.219999 45.023998 5.4000001
26.823999 45.032001 5.4012499
25.016001 45.619999 5.4037499
25.620001 45.624001 5.4050002
26.236 45.636002 5.4099998
26.82 45.632 5.40625
25 46.203999 5.4012499
25.628 46.228001 5.4050002
26.232 46.228001 5.4025002
26.799999 46.228001 5.4112501
25.035999 46.82 5.4074998
25.636 46.804001 5.4050002
26.200001 46.827999 5.4012499
26.823999 46.807999 5.4087501
25 47.403999 5.4099998
25.632 47.436001 5.4099998
26.212 47.436001 5.4000001
26.823999 47.431999 5.4087501
25.007999 48.032001 5.40625
25.615999 48.032001 5.4050002
26.224001 48.028 5.4112501
26.808001 48.023998 5.4000001
25.032 48.636002 5.4000001
25.608 48.619999 5.4025002
26.204 48.627998 5.4074998
26.799999 48.627998 5.40625
25.032 49.208 5.4074998
25.6 49.231998 5.4050002
26.200001 49.200001 5.40625
26.827999 49.223999 5.4037499
25.004 49.807999 5.4037499
25.604 49.824001 5.4012499
26.212 49.82 5.4000001
26.812 49.835999 5.4087501
25.024 0.0080000004 6.0075002
25.615999 0.0080000004 6.0037498
26.236 0.012 6.0062499
26.82 0.02 6.0037498
25.004 0.62 6.0062499
25.632 0.60799998 6.0025001
26.208 0.616 6.0075002
26.827999 0.62 6.0037498
25.032 1.2 6
25.604 1.216 6.01125
26.200001 1.2079999 6.0037498
26.827999 1.224 6.0075002
25 1.8279999 6.0012498
25.624001 1.808 6.0075002
26.204 1.8200001 6.0025001
26.836 1.816 6.0075002
25.004 2.4319999 6
25.636 2.4200001 6.00875
26.208 2.4200001 6.0100002
26.808001 2.424 6.0025001
25.011999 3.0280001 6.0050001
25.628 3.016 6.0025001
26.219999 3.0239999 6.01125
26.832001 3.0079999 6.0037498
25.016001 3.6159999 6.0100002
25.632 3.612 6.0050001
26.228001 3.6240001 6.0050001
26.827999 3.628 6.01125
25.028 4.1999998 6.0062499
25.620001 4.2160001 6.0037498
26.236 4.2319999 6
26.82 4.2280002 6.0075002
25.028 4.8080001 6.0037498
25.632 4.8080001 6.00875
26.204 4.8319998 6.0012498
26.804001 4.836 6.0075002
25.032 5.4239998 6.0050001
25.608 5.4120002 6.0050001
26.216 5.4000001 6.0050001
26.804001 5.428 6.0100002
25.016001 6.0320001 6.0100002
25.628 6.0120001 6.00875
26.212 6.0079999 6.0012498
26.832001 6 6.0037498
25.024 6.612 6.0025001
25.636 6.6199999 6.0012498
26.232 6.6199999 6.00875
26.816 6.6279998 6.0025001
25.032 7.204 6.0062499
25.608 7.2080002 6.0050001
26.212 7.2360001 6.0037498
26.812 7.224 6.0075002
25.004 7.8039999 6.0012498
25.608 7.8000002 6.0037498
26.224001 7.8239999 6.00875
26.799999 7.8280001 6.0050001
25.004 8.4200001 6.01125
25.6 8.3999996 6.0100002
26.216 8.3999996 6
26.836 8.4119997 6.0050001
25.016001 9.0319996 6.0037498
25.636 9.0039997 6.0012498
26.228001 9.0159998 6.0037498
26.832001 9.0279999 6.0037498
25.007999 9.6199999 6.0012498
25.636 9.6199999 6.0100002
26.219999 9.6239996 6.0075002
26.816 9.632 6.0100002
25.007999 10.208 6.0100002
25.615999 10.216 6.0037498
26.204 10.2 6.0012498
26.823999 10.236 6.0062499
25.032 10.824 6.01125
25.604 10.82 6.0075002
26.224001 10.836 6.0012498
26.827999 10.832 6.0100002
25.028 11.42 6.0075002
25.620001 11.436 6.0050001
26.212 11.412 6.01125
26.808001 11.4 6.0037498
25.02 12.012 6.0037498
25.636 12.036 6.0025001
26.216 12.036 6
26.82 12.008 6.0062499
25.016001 12.632 6.0075002
25.628 12.628 6.0050001
26.224001 12.628 6.01125
26.808001 12.608 6
25.028 13.232 6.0075002
25.624001 13.2 6.0100002
26.204 13.228 6.0012498
26.816 13.232 6.0025001
25.032 13.816 6.0050001
25.632 13.8 6.0100002
26.224001 13.816 6.00875
26.808001 13.804 6.0075002
25.035999 14.428 6.0062499
25.6 14.408 6
26.212 14.436 6.0100002
26.804001 14.428 6.0100002
25.035999 15.032 6.00875
25.608 15.016 6.0075002
26.224001 15.016 6
26.808001 15.016 6
25.004 15.608 6.0075002
25.6 15.628 6
26.224001 15.624 6.01125
26.816 15.632 6.0012498
25.016001 16.212 6.0025001
25.608 16.216 6.01125
26.200001 16.212 6.01125
26.836 16.228001 6.0062499
25.02 16.816 6.01125
25.632 16.832001 6.0075002
26.232 16.836 6.0100002
26.827999 16.836 6.0062499
25.028 17.424 6.0037498
25.624001 17.408001 6.0025001
26.200001 17.424 6.0062499
26.808001 17.431999 6
25.016001 18 6.0062499
25.620001 18.035999 6.0062499
26.204 18.028 6.0012498
26.808001 18.02 6.01125
25.032 18.620001 6.01125
25.636 18.608 6.0100002
26.216 18.604 6.0075002
26.832001 18.6 6.0100002
25.007999 19.200001 6.0050001
25.636 19.216 6.0050001
26.204 19.200001 6.0075002
26.827999 19.224001 6.0075002
25.016001 19.836 6.0062499
25.620001 19.812 6
26.216 19.816 6.00875
